384302.181339346	5344813.181320624	-24.61
384472.1817053439	5344743.180924832	-24.64
384672.1822002698	5344713.180599134	-24.72
384966.1828728668	5344624.180000693	-25.42
384742.1831467715	5345333.182168378	-24.14
384742.1829505458	5345173.1817413755	-24.32
384922.1841115475	5345730.183006641	-24.78
384596.18324724445	5345731.183409338	-25.4
384731.18356764835	5345700.183160953	-25.3
384369.182588088	5345685.183565435	-25.36
384099.18190561206	5345713.183971952	-24.44
383283.1780059866	5344306.18122048	-27.47
383241.17823061306	5344579.1820016075	-25.63
383110.17737323197	5344166.181059664	-28.18
383131.17747100815	5344200.18112463	-28.01
383041.17738936807	5344328.18157769	-26.81
383050.17767465214	5344540.182132972	-25.07
384247.1799942752	5343837.178780195	-32.42
384279.18025141396	5343977.179115183	-31.78
384487.18077553436	5343953.178795456	-31.99
384606.1811106681	5343968.178689419	-32.35
384861.18181387725	5343988.17842991	-32.82
383914.1786061558	5343429.178098449	-22.71
384134.1793321995	5343543.178132813	-25.38
384504.18058879377	5343764.178269206	-32.010000000000005
384654.1810445702	5343810.178208024	-34.46
384788.18141968845	5343825.17808366	-35.24
384791.18120937864	5343647.177603935	-32.45
385141.1820494545	5343572.176974028	-33.04
385339.18276896374	5343729.177151312	-39.97
385101.1821512252	5343742.17747777	-38.42
385597.18229849206	5342783.1743036015	-26.94
385677.18276987	5342994.1747706495	-25.38
385496.1823119393	5343014.175045794	-26.91
385587.1829753555	5343358.175855091	-27.46
385757.1833487304	5343293.175473075	-27.56
385964.1838415498	5343245.175091401	-27.49
385929.1842726262	5343674.176282009	-35.24
385726.1836281396	5343589.176302985	-29.94
385720.1832978548	5343332.175622719	-27.82
385663.18373069033	5343810.176971181	-31.01
385592.1832504954	5343572.176421524	-30.58
385465.1831937825	5343802.177192201	-34.300000000000004
385506.18350729666	5343969.177588535	-33.0
385827.184164849	5343808.176765156	-32.5
385358.18286485056	5343766.177226989	-39.65
385909.18470582477	5344072.177370727	-32.74
385714.18425046897	5344124.177748284	-31.1
385901.1824794199	5342268.172551896	-25.51
385715.1819195794	5342216.172640121	-25.77
385197.1804542055	5342148.173092353	-23.63
385155.18062393187	5342378.173760219	-24.55
385122.1807797409	5342577.17433382	-25.49
385146.1811083839	5342793.174882913	-26.33
385070.1808984233	5342787.174960028	-25.88
384922.18056639243	5342838.175278126	-25.47
384934.18040958274	5342684.174850989	-25.32
384923.18014240224	5342490.174344822	-24.45
384913.1799636982	5342366.174024859	-23.74
384860.1796334733	5342212.173677209	-22.48
384673.17911737505	5342198.173869216	-22.16
384697.17940224893	5342378.174322108	-22.74
384720.1797015991	5342572.17481361	-24.2
384674.17983904335	5342784.175437883	-24.56
384733.18025271	5342993.175925059	-24.67
384313.17811020213	5342160.174209612	-20.98
383516.17584827205	5342050.174895565	-18.34
383468.17587781436	5342178.175297786	-18.13
383692.1764594484	5342165.174987013	-18.57
383854.17690520844	5342176.174817053	-19.61
383349.1760678557	5342590.1765483	-18.39
383498.17646392697	5342589.176362	-18.08
383758.1770698608	5342518.1758515965	-18.83
383779.17692532815	5342355.175389047	-20.01
384129.1778073014	5342313.174845858	-20.69
383276.1776436512	5344027.180483446	-30.61
383266.1778437266	5344211.18098757	-28.38
383371.17790631327	5344035.180387735	-29.87
383497.17821699	5344015.180179018	-30.66
383672.17848704976	5343856.1795383915	-32.16
384140.17977088416	5343887.179045431	-30.06
384134.1799625817	5344056.179504625	-28.87
383122.1747352653	5342000.175247266	-17.53
382564.1732523713	5342005.175949564	-13.63
382482.1730483725	5342017.176083065	-15.97
382127.17270938406	5342509.1778404005	-14.05
382101.1729677125	5342774.178582281	-14.34
382061.1731529217	5343010.179263601	-14.399999999999997
383326.1755901245	5342252.175671111	-16.73
383146.17498914164	5342154.175630439	-19.45
383304.1757137779	5342400.176094796	-17.45
383508.17620739766	5342359.175733523	-18.58
383132.17545348796	5342561.176738196	-17.84
383165.17580894334	5342778.177278657	-17.18
383334.1762803962	5342795.1771158045	-17.79
382264.17288932647	5342359.177269097	-14.4
383296.1798771559	5345797.185184463	-19.75
383300.18012548814	5345990.185694113	-21.42
383105.17961168196	5345993.185942513	-19.22
383103.17936852056	5345800.185430405	-18.8
383106.1791275363	5345598.184887983	-17.79
383110.1788879745	5345395.184341512	-18.84
383115.1786523045	5345193.183796321	-18.74
383126.17843258445	5344991.18324358	-17.74
383135.17823220475	5344809.182746559	-19.34
382903.1776191996	5344812.1830407735	-19.5
382902.17783482803	5344989.183514573	-17.99
382904.1780867913	5345189.184045941	-17.64
382908.1783452898	5345390.18457736	-18.41
382908.17859192373	5345590.185110896	-17.399999999999995
382906.178835712	5345792.185652085	-17.49
382708.1785593501	5345994.186435043	-18.39
382711.17832054006	5345794.185898107	-16.71
382715.17808068596	5345591.185351785	-16.73
382710.17781939305	5345390.184821758	-16.74
382717.17758873914	5345188.184274098	-17.560000000000002
382711.17732477456	5344987.183745004	-16.36
382717.17711244174	5344802.183243669	-16.71
382687.1768759676	5344675.182941567	-19.28
382905.17747529264	5344691.182715182	-22.0
382523.17623128416	5344506.18269274	-20.34
382529.176347248	5344587.182901688	-18.11
382527.17660615133	5344801.183475669	-17.7
382525.1768255398	5344983.183964052	-17.04
382520.1770665915	5345189.184520075	-16.86
382517.1773129562	5345395.185073464	-16.13
382521.1775803783	5345603.185623388	-16.75
382520.17783698643	5345813.186184661	-17.5
382904.1790770292	5345992.186187793	-18.98
382119.17677751	5345817.186691003	-17.219999999999995
382117.1765101549	5345605.186128119	-16.82
382115.1762440247	5345394.1855677385	-16.45
382113.1759815984	5345186.185015197	-16.46
382111.1757278153	5344985.184481182	-16.23
382116.1754975785	5344788.183949039	-16.49
382320.17605590954	5344801.183731488	-17.71
382117.17500699323	5344389.182882095	-16.939999999999998
382700.1753259485	5343391.179493295	-16.49
382509.17479624564	5343374.179683756	-15.559999999999997
382120.1735809029	5343229.179776733	-14.5
382112.1737635868	5343394.180228118	-14.96
382335.1743933446	5343423.180029917	-15.48
382726.1759048613	5343804.180565832	-18.73
382542.1753879106	5343782.180734276	-16.84
382262.1746611049	5343797.18112047	-16.14
382093.1742013586	5343789.181308107	-15.39
382297.1752386203	5344189.182125078	-18.3
382472.17570913536	5344193.181919459	-20.99
382768.17693339736	5344547.182499676	-22.26
383913.1817597119	5345996.18495531	-24.79
383921.18153875455	5345799.18442021	-24.28
383908.1812878606	5345623.183966815	-23.02
383946.1810310278	5345332.183143728	-23.31
383694.180200456	5345201.183104253	-21.66
383697.1804729331	5345416.183674274	-21.61
383751.1808562205	5345611.184128004	-21.87
383714.18097694195	5345789.18464827	-22.3
383026.1764901383	5343631.179732903	-19.64
383033.1767578212	5343833.18026446	-23.53
383313.1774440084	5343785.179790823	-24.6
383655.17824613664	5343697.179134141	-26.51
383595.1779116136	5343555.178828225	-23.32
383309.1771771259	5343577.179239474	-19.8
383337.17697822576	5343355.178611056	-18.68
383132.17649628007	5343407.179002943	-18.99
384959.1832820066	5344973.180941272	-25.17
384960.1836425444	5345265.181719475	-24.7
384945.1837081005	5345351.181967368	-24.88
384921.18390175013	5345561.182557088	-25.12
384968.18440525077	5345870.183323572	-24.75
385118.1849455258	5345986.183448961	-25.03
385141.1847383219	5345767.18283681	-24.86
385136.184509465	5345591.182373507	-24.91
385128.1842591521	5345404.181884416	-25.35
385158.18408774334	5345199.181300576	-25.07
385239.1840200836	5344968.180584665	-25.96
385370.18434990477	5344953.180384125	-24.770000000000007
385388.18461562874	5345131.180837267	-25.2
385420.18494054634	5345327.181321185	-26.01
385370.18503784057	5345515.1818840485	-25.05
385424.1855153689	5345788.1825461	-23.89
385544.18573486054	5345707.182183146	-25.13
385546.1855040547	5345514.181665865	-25.57
385609.1854695521	5345349.1811484955	-25.73
385531.1850702532	5345192.180824976	-26.14
385689.185414256	5345130.180466096	-25.9
385686.18572546594	5345391.181166335	-25.49
385680.185956556	5345593.181712605	-24.62
385690.18617143034	5345747.182111138	-23.96
385895.18676460476	5345787.181967051	-24.24
385869.1869033458	5345957.1824521655	-24.61
385925.1866548437	5345632.181516951	-23.86
385913.18633701827	5345398.180907332	-25.08
385907.18609010463	5345209.180410282	-25.9
384649.1819305575	5344543.180173285	-25.49
384595.18160289415	5344393.179838833	-26.58
383119.17619171063	5343188.1784329675	-21.48
382929.1756867401	5343189.178670064	-17.77
382876.17530006333	5342990.178202837	-16.73
383107.17583060975	5342921.17773308	-17.71
382898.1758656432	5343401.179275598	-17.85
385703.18177625217	5342125.172410898	-24.47
385567.1814794207	5342179.172722132	-25.63
385561.1816322837	5342317.173099319	-26.160000000000007
385374.1811726007	5342349.173414112	-26.17
385345.18094584986	5342227.173122704	-25.47
385294.1805599421	5342023.172638391	-23.74
384528.17869613494	5342170.173972241	-21.65
384539.1790028956	5342396.174564353	-22.47
384518.1791837972	5342589.175107193	-23.51
384466.1792894482	5342788.1757040415	-24.16
384458.1795492682	5343017.176327003	-24.18
384278.1790769388	5343023.176564254	-23.62
384295.1788458723	5342798.175940942	-23.55
384281.1786107789	5342637.175526976	-23.41
384313.1783988576	5342395.174839356	-21.38
384099.17773587623	5342320.1749015115	-20.73
384127.1781534556	5342599.175614532	-22.19
384127.17845209263	5342842.176265308	-24.24
384116.1785604157	5342954.176578709	-22.93
384126.1788426861	5343162.177123193	-22.93
383848.17817454296	5343221.177623098	-23.22
383859.17789514264	5342970.176937713	-20.75
383959.17789115023	5342750.1762256	-21.36
383958.17742984154	5342377.175227691	-19.98
384169.1801576999	5344139.179683449	-28.19
384277.18041068007	5344111.1794758495	-29.4
384513.18101657025	5344093.179137785	-29.57
384847.1819384698	5344120.178799951	-30.22
382497.1735614209	5342400.177090898	-14.7
382479.17371473217	5342563.177549786	-16.19
382710.1748268333	5342965.178340863	-15.91
382519.1743153524	5342963.178571459	-15.29
382292.17401191697	5343207.179505129	-15.82
382292.17346449307	5342764.178319258	-15.09
382442.1739088167	5342800.178230214	-15.14
382315.17384954396	5343026.1789922565	-15.36
382462.17443146085	5343180.1792227235	-15.69
382252.1731477636	5342594.177913454	-14.61
383318.1767255853	5343191.178195617	-18.23
383495.17721562524	5343206.178017632	-19.39
383719.17784070794	5343229.177803303	-21.48
384153.1790731404	5343291.177435223	-23.62
383930.17856515397	5343361.177896822	-23.06
383677.1779158592	5343381.178261748	-22.79
383447.1773648129	5343431.178678828	-20.88
383337.1765224468	5342985.177620808	-18.3
383501.1767465001	5342812.17695552	-18.75
383484.1769117411	5342983.177434296	-19.3
383710.1774832761	5342958.177089008	-20.31
382112.1737611162	5343392.180222765	-14.81
382285.177209489	5345810.186467073	-18.06
382278.17693393	5345602.185921029	-17.12
382268.1766540921	5345397.1853865385	-17.0
382259.17637318553	5345189.184842649	-17.39
382257.1761158058	5344985.184300625	-16.27
382115.17475566326	5344190.1823528325	-16.28
382116.1752491047	5344587.183412253	-16.25
382319.1757839248	5344583.183150534	-17.05
382723.17562414904	5343583.179978511	-17.93
382537.1751375324	5343590.18022698	-15.78
382404.17471051874	5343531.180233526	-15.95
382087.1738503208	5343518.180590765	-14.69
382795.1762415165	5343928.180812176	-19.98
382854.17652559804	5344031.181014693	-22.36
383023.17689887836	5343969.180640408	-24.61
382970.1766961748	5343919.180572128	-22.1
383015.1766186682	5343759.180088791	-20.88
382895.17612284166	5343616.179854433	-18.89
382103.17445546115	5343973.181787672	-15.7
382306.1749647968	5343948.181469785	-16.95
382486.1754722387	5343971.181308785	-17.96
383913.18057820876	5345035.182391649	-22.76
383932.18088688055	5345245.182928785	-23.020000000000003
383913.181083525	5345446.183488496	-22.15
383906.1812800925	5345621.1839639405	-22.66
383920.18153733	5345800.184424109	-24.29
384116.18206132867	5345803.184191062	-24.84
384117.1818428214	5345623.183709776	-24.34
384055.1813721905	5345374.183121733	-23.53
384024.1811226936	5345238.182796943	-23.58
384123.18107607483	5344986.182002561	-23.53
384121.1808889042	5344838.181609865	-23.64
384135.1806963516	5344651.181093253	-25.19
384119.18046580366	5344498.180704231	-25.91
384152.180398753	5344372.180327018	-25.74
383936.1798524846	5344395.180654126	-26.19
383906.17991778	5344513.181006289	-25.59
383875.1799878182	5344637.18137566	-25.18
383846.18009886646	5344790.181819956	-24.3
383693.179959117	5345007.182587656	-21.56
383672.1796806076	5344826.182130262	-23.46
383641.17948499287	5344734.181922752	-24.0
383630.1793179216	5344622.181637173	-24.54
383595.1787891752	5344268.180734513	-28.88
383449.1783983137	5344266.180909016	-28.58
383424.17852267134	5344421.181353981	-26.17
383404.1786529613	5344570.181776664	-25.09
383438.1789231448	5344716.18212472	-23.49
383443.17918638414	5344919.182660618	-22.45
384317.1813841325	5344817.18131287	-25.41
384489.181754222	5344746.180911965	-24.99
384689.18224914843	5344716.180586278	-24.55
384966.1828728668	5344624.180000693	-25.62
384941.18296818703	5344756.180383909	-24.7
384944.1827285648	5344554.179840687	-26.29
384936.18247684196	5344366.179348213	-26.82
385108.18291110033	5344347.179086526	-27.39
385293.1833971108	5344342.178846429	-27.7
385495.18392345984	5344333.178574952	-28.03
385716.1844893694	5344315.178256327	-28.51
385908.1850368242	5344345.178101614	-28.68
385858.1852265157	5344609.178868112	-26.26
385640.18457463005	5344550.178977235	-26.08
385455.1841058826	5344569.179254483	-26.37
385245.18359027326	5344604.1796052335	-25.42
385062.18311956554	5344617.179864272	-25.2
385517.1848213793	5345019.180380314	-24.93
385498.1845261527	5344819.1798695605	-26.11
385696.1852445292	5344976.180046412	-24.76
385725.1851296295	5344819.179591706	-25.9
385881.1854917978	5344776.179286033	-26.22
385893.18581824953	5345017.17991488	-25.42
385170.1836860292	5344845.180340807	-25.65
385361.18414480763	5344805.179999957	-25.6
384344.18118821515	5344599.180697473	-26.42
384283.1808835389	5344483.180462557	-26.660000000000007
382742.17422596086	5342409.176812343	-15.77
382698.1743554663	5342609.177402428	-13.98
382678.17452801927	5342792.177917204	-14.75
382886.1748036905	5342566.17705513	-15.66
382877.1750486129	5342784.177650069	-15.15
383245.1754603014	5342322.175958551	-17.92
383577.17980591586	5345133.1830668235	-21.41
383612.1799296792	5345158.183090451	-21.25
383612.17989891366	5345133.183023726	-21.51
383612.1798681478	5345108.182956995	-21.65
383612.17983738374	5345083.182890265	-21.85
383612.1797758529	5345033.182756798	-22.36
383612.17971432157	5344983.18262332	-22.17
383612.17965279013	5344933.182489834	-22.22
383612.1795912593	5344883.182356339	-22.73
383612.17952972726	5344833.182222833	-22.84
383612.17996044416	5345183.183157177	-21.29
383612.1800219728	5345233.183290617	-20.74
383612.1800835031	5345283.183424046	-20.62
383612.1801450324	5345333.1835574685	-20.75
383612.18020656257	5345383.18369088	-20.92
383612.1802680908	5345433.183824284	-21.09
383612.1803296189	5345483.183957676	-21.07
383612.18039114814	5345533.18409106	-20.95
383612.1804219118	5345558.184157752	-20.92
383512.1796947546	5345183.183280332	-20.75
383512.17994094646	5345383.183814036	-20.12
383512.1801871341	5345583.1843475895	-20.23
383512.18043331726	5345783.184880996	-21.57
383512.1806794957	5345983.185414256	-22.48
383412.1796753325	5345383.183937228	-19.57
383312.17965605576	5345583.184594009	-19.12
383312.1794097195	5345383.184060457	-19.72
383312.17916338	5345183.183526759	-21.16
383312.1789170373	5344983.182992913	-20.24
384092.1820836304	5345873.184407228	-24.13
385442.18468813726	5345073.180616307	-25.18
383932.1806262434	5345033.182362937	-22.74
382812.1779089775	5345243.184303594	-17.34
382112.17480084073	5344233.182471455	-16.42
383002.17715616804	5344223.1813452225	-27.14
385592.18441394554	5344523.178963858	-24.95
385832.1830350431	5342873.174256999	-28.77
385262.1818707824	5343163.175731313	-25.37
384182.1790054088	5343173.177083776	-21.87
383462.17707475874	5343163.177943212	-18.49
382392.1743351495	5343253.179504595	-15.41
382042.1721784904	5342263.177286515	-13.920000000000003
384452.1784356494	5342123.173939631	-20.61
384022.1797223077	5344103.179767992	-27.32
385152.18041376903	5342213.173321731	-24.15
