ncols        162
nrows        32
xllcorner    375848.557127
yllcorner    5335719.16292
cellsize     100.000000000000
NODATA_value  -3.4028234663852889759e+38
220.7371978759765625 219.7516632080078125 218.49932861328125 215.89849853515625 215.4575347900390625 213.4008941650390625 210.063995361328125 210.3761749267578125 209.384185791015625 209.3679962158203125 211.7556915283203125 219.5102386474609375 221.9281005859375 213.6379547119140625 222.7661590576171875 253.4201507568359375 275.859161376953125 278.512939453125 283.71331787109375 291.78558349609375 288.279022216796875 294.60736083984375 266.305023193359375 220.73822021484375 182.652130126953125 157.6087493896484375 148.8472900390625 143.8685150146484375 137.1192169189453125 130.8827362060546875 138.1763916015625 159.0071258544921875 171.5203857421875 175.7961883544921875 173.973785400390625 157.2317962646484375 133.454498291015625 122.53726959228515625 118.62935638427734375 119.488922119140625 122.0496368408203125 124.61065673828125 130.3108673095703125 136.933837890625 138.895477294921875 154.04473876953125 175.9246063232421875 187.011016845703125 188.21820068359375 200.0930633544921875 214.621673583984375 246.45672607421875 286.69635009765625 301.687591552734375 315.590911865234375 331.4534912109375 332.050079345703125 342.06536865234375 355.32440185546875 358.355194091796875 368.224365234375 380.74420166015625 390.52325439453125 418.1895751953125 449.602142333984375 485.55401611328125 504.828399658203125 489.7069091796875 473.8082275390625 449.5096435546875 435.913787841796875 446.68798828125 470.6591796875 511.58917236328125 567.5362548828125 592.177001953125 575.4139404296875 580.77178955078125 626.53497314453125 690.88543701171875 771.8941650390625 847.13189697265625 897.7869873046875 929.6231689453125 961.3685302734375 1003.76934814453125 1031.5191650390625 1044.650634765625 1057.0377197265625 1074.7755126953125 1034.6297607421875 999.74395751953125 993.47906494140625 975.09716796875 967.11309814453125 954.29803466796875 908.69891357421875 874.05572509765625 823.59344482421875 766.10150146484375 743.5914306640625 742.617919921875 709.5423583984375 625.94244384765625 561.703369140625 496.078887939453125 441.87255859375 406.241180419921875 362.32342529296875 323.001708984375 295.641998291015625 277.044708251953125 263.35882568359375 251.489990234375 244.8520355224609375 236.608367919921875 231.4446868896484375 230.9029693603515625 231 231 231 231 231 231 231 231 231 231 231 231 231 231.3516845703125 231.0869598388671875 230.922119140625 231 231 231 231 231 231 231 231 231 231 231.1408538818359375 233.216888427734375 236.5350341796875 240.8858489990234375 245.221893310546875 246.670379638671875 247.7444610595703125 249.6735076904296875 254.091766357421875 265.39569091796875 273.188690185546875 275.25762939453125 282.062042236328125 285.01373291015625 295.155517578125 303.930511474609375 297.14361572265625 286.148956298828125
224.750030517578125 223.621856689453125 221.1579742431640625 218.7669830322265625 216.54718017578125 215.1871185302734375 211.8218536376953125 209.40875244140625 207.986572265625 206.603271484375 211.2255859375 220.8299102783203125 227.744720458984375 219.1236572265625 212.8755645751953125 219.6881103515625 242.186126708984375 266.599639892578125 287.75775146484375 289.41650390625 287.156707763671875 300.5091552734375 281.127288818359375 237.6992645263671875 194.2468414306640625 165.5406494140625 161.1359405517578125 147.8067474365234375 133.2510223388671875 127.22522735595703125 133.3386688232421875 148.288543701171875 153.8736724853515625 149.5209808349609375 136.57708740234375 124.3001556396484375 116.6147003173828125 116.3366851806640625 117.65305328369140625 120.18852996826171875 123.51938629150390625 128.3587493896484375 139.7083740234375 148.936126708984375 150.5540313720703125 163.87994384765625 190.926055908203125 203.7707977294921875 203.7150115966796875 211.2068023681640625 220.104888916015625 243.6439056396484375 278.16839599609375 287.9989013671875 295.1220703125 310.78125 326.324554443359375 336.73126220703125 338.847869873046875 343.136810302734375 367.28387451171875 393.0743408203125 403.053863525390625 426.70233154296875 454.935302734375 479.08892822265625 498.37933349609375 504.123687744140625 492.70166015625 473.843719482421875 464.774078369140625 466.2305908203125 480.66839599609375 523.4886474609375 592.53497314453125 642.440185546875 643.8646240234375 627.09283447265625 629.17047119140625 670.5950927734375 765.1639404296875 850.2900390625 900.704833984375 937.57537841796875 984.36944580078125 1038.242919921875 1070.18505859375 1077.42138671875 1092.313720703125 1102.8662109375 1009.32745361328125 942.112548828125 906.3382568359375 893.9267578125 930.12298583984375 950.7498779296875 927.76971435546875 892.76300048828125 842.802978515625 773.64703369140625 724.72601318359375 717.16632080078125 702.36077880859375 650.75933837890625 591.00433349609375 527.756103515625 462.330902099609375 409.2357177734375 360.91015625 324.42181396484375 294.889801025390625 275.7564697265625 262.870758056640625 254.4504547119140625 245.393829345703125 237.924530029296875 232.6148681640625 230.8153076171875 230.9100799560546875 231 231 231 231 231 231 231 231 231 231 231 230.99713134765625 232.5037994384765625 234.085235595703125 231.8875885009765625 231 231 231 231 231 231 231 231 231 231 232.7538299560546875 238.913665771484375 242.72406005859375 243.7784423828125 244.3797454833984375 241.7015228271484375 242.595062255859375 246.07318115234375 250.915191650390625 260.460601806640625 265.869903564453125 282.136383056640625 294.625457763671875 299.88702392578125 313.03973388671875 319.38330078125 314.52386474609375 300.9129638671875
228.84979248046875 226.1123199462890625 222.5366668701171875 217.7005157470703125 213.876739501953125 214.041656494140625 212.5865020751953125 209.6922454833984375 207.786224365234375 206.231597900390625 211.5930633544921875 221.2315521240234375 229.44598388671875 222.9677276611328125 215.5444793701171875 226.18743896484375 256.622589111328125 281.342529296875 294.730987548828125 288.694580078125 282.5081787109375 297.60015869140625 287.78466796875 250.2576751708984375 201.4553985595703125 176.3763885498046875 175.2714080810546875 154.422454833984375 146.0938873291015625 130.2198028564453125 124.541168212890625 131.970916748046875 133.4024505615234375 129.0656585693359375 116.678741455078125 114.28527069091796875 114.01561737060546875 115.36650848388671875 118.1044769287109375 121.64049530029296875 124.8972930908203125 130.9129791259765625 143.341644287109375 151.7417449951171875 157.491180419921875 177.996185302734375 189.0389862060546875 210.67462158203125 222.58721923828125 218.497802734375 218.6103363037109375 238.3357696533203125 269.16131591796875 275.843902587890625 277.3421630859375 298.355316162109375 320.7064208984375 329.922454833984375 324.199066162109375 331.71142578125 370.248626708984375 396.085479736328125 402.5906982421875 414.23931884765625 438.076751708984375 466.81695556640625 487.539154052734375 499.19219970703125 500.5809326171875 492.512908935546875 493.316131591796875 497.6414794921875 496.920562744140625 522.3028564453125 594.5325927734375 670.52667236328125 710.1702880859375 715.50408935546875 690.5030517578125 688.78131103515625 754.34918212890625 829.679443359375 882.043701171875 930.72686767578125 987.40545654296875 1051.6270751953125 1086.846923828125 1089.71435546875 1096.680908203125 1093.4036865234375 1001.0045166015625 926.70452880859375 855.354248046875 838.95263671875 878.127197265625 928.193115234375 922.08538818359375 896.0634765625 850.9071044921875 780.48443603515625 718.27520751953125 687.875244140625 673.7425537109375 646.684326171875 610.9542236328125 546.09771728515625 477.1387939453125 417.455291748046875 362.634552001953125 320.53460693359375 291.33929443359375 273.906585693359375 261.784210205078125 253.538604736328125 243.9184722900390625 238.206634521484375 233.8509521484375 231.807220458984375 231.0831298828125 231 231 231 231 231 231 231 231 231 231 231 230.73956298828125 232.51995849609375 234.857269287109375 232.72894287109375 231 231 231 231 231 231 231 231 231 231.060638427734375 234.1256256103515625 240.8472442626953125 243.58233642578125 242.064666748046875 239.62213134765625 235.871337890625 239.029266357421875 244.6582794189453125 250.0126953125 257.454803466796875 268.26641845703125 296.58392333984375 308.957122802734375 311.468963623046875 324.286651611328125 332.838134765625 340.98345947265625 324.1160888671875
236.1008758544921875 228.2583465576171875 220.7566986083984375 214.777496337890625 212.3835906982421875 212.611419677734375 211.201904296875 209.8355712890625 207.7992095947265625 205.8871917724609375 209.5883331298828125 219.4024658203125 228.2249908447265625 223.683837890625 220.2882080078125 240.6376495361328125 276.616607666015625 292.846405029296875 298.9757080078125 290.191558837890625 277.874603271484375 286.36407470703125 274.76104736328125 238.9716644287109375 200.4155426025390625 186.91998291015625 177.5003814697265625 157.312347412109375 154.8350372314453125 134.3016357421875 119.39119720458984375 117.82228851318359375 118.12802886962890625 118.3042449951171875 112.8888397216796875 111.823577880859375 112.8702545166015625 117.1735076904296875 120.94818115234375 124.37058258056640625 126.72743988037109375 129.3425445556640625 136.5933990478515625 142.4273529052734375 155.2540740966796875 189.7169342041015625 198.968719482421875 212.6010894775390625 231.222259521484375 230.01678466796875 221.15850830078125 229.5913543701171875 246.747161865234375 254.989471435546875 263.400634765625 291.916534423828125 307.551055908203125 321.995025634765625 319.32818603515625 327.162109375 358.022979736328125 381.518707275390625 389.055938720703125 398.40631103515625 425.198944091796875 459.70269775390625 478.232452392578125 490.97418212890625 501.25421142578125 507.479705810546875 522.9600830078125 533.41265869140625 531.13604736328125 546.840087890625 597.347412109375 658.087158203125 716.822509765625 762.32861328125 777.33843994140625 767.02886962890625 766.1072998046875 822.1986083984375 880.22515869140625 939.84521484375 1005.50201416015625 1064.7728271484375 1104.365966796875 1113.2249755859375 1108.985595703125 1087.1326904296875 1017.23150634765625 918.8333740234375 827.3651123046875 812.5740966796875 837.3460693359375 892.16424560546875 913.4635009765625 888.54095458984375 841.80657958984375 782.02056884765625 711.98040771484375 672.09954833984375 643.10791015625 606.93505859375 589.3780517578125 542.0126953125 480.7613525390625 417.817718505859375 359.79754638671875 312.7303466796875 286.37469482421875 271.39263916015625 261.346588134765625 252.8545379638671875 243.401947021484375 238.847412109375 234.100250244140625 231.1611328125 231 231 231 231 231 231 231 231 231 231 231 231 230.28924560546875 231.58428955078125 234.126708984375 232.7098541259765625 231 231 231 231 231 231 231 231 231 231 233.1099395751953125 238.6859283447265625 239.534820556640625 237.178009033203125 234.3728485107421875 234.7842864990234375 241.5468597412109375 247.155029296875 252.1445159912109375 264.97760009765625 283.5433349609375 311.456390380859375 321.582763671875 321.4798583984375 333.92523193359375 349.466094970703125 362.181976318359375 342.665283203125
239.332427978515625 228.1334686279296875 219.097564697265625 211.3090667724609375 210.629730224609375 211.722137451171875 209.499969482421875 209.734283447265625 208.391998291015625 205.980316162109375 207.8738861083984375 215.020782470703125 223.2716064453125 219.9034423828125 218.777587890625 239.3682861328125 268.131744384765625 289.7135009765625 298.385955810546875 291.98394775390625 276.205841064453125 276.336822509765625 255.841339111328125 214.2341156005859375 187.1446533203125 186.9144439697265625 168.1579742431640625 149.9651947021484375 149.709381103515625 132.18548583984375 116.9573516845703125 114.50475311279296875 113.107513427734375 111.8392486572265625 110.9769287109375 112.0783538818359375 117.9072113037109375 125.1598968505859375 128.743743896484375 130.029541015625 134.7669219970703125 132.53045654296875 136.9258880615234375 135.5049896240234375 151.2555389404296875 193.4662933349609375 217.9182891845703125 226.842620849609375 239.493682861328125 246.6955718994140625 238.871673583984375 236.60614013671875 235.1388702392578125 242.4752044677734375 260.34912109375 283.757476806640625 290.861968994140625 310.10943603515625 310.36248779296875 319.67596435546875 340.368133544921875 353.524658203125 368.397705078125 387.59820556640625 413.28778076171875 441.41473388671875 456.1165771484375 467.919403076171875 482.234375 504.890167236328125 537.72607421875 561.9876708984375 568.2052001953125 586.0106201171875 631.19561767578125 675.5108642578125 710.5845947265625 751.7537841796875 806.69622802734375 859.87481689453125 874.9625244140625 870.51739501953125 893.41864013671875 947.283447265625 1012.1900634765625 1072.9283447265625 1117.6260986328125 1114.4827880859375 1081.0208740234375 1047.045166015625 1010.1805419921875 903.92388916015625 818.20562744140625 797.36407470703125 803.44989013671875 841.620849609375 887.70220947265625 871.1337890625 822.97552490234375 780.35052490234375 711.43267822265625 664.44781494140625 629.7066650390625 571.34124755859375 538.18084716796875 523.982666015625 492.072052001953125 433.005218505859375 372.04364013671875 322.43524169921875 284.249725341796875 266.074249267578125 256.71527099609375 250.16552734375 242.303009033203125 237.1983489990234375 235.894287109375 234.2620086669921875 232.8863677978515625 231 231 231 231 231 231 231 231 231 231 231 230.739715576171875 231.520599365234375 233.2808990478515625 231.8704376220703125 231 231 231 231 231 231 231 231 231.02581787109375 231.5316162109375 232.54571533203125 233.132659912109375 235.3320770263671875 235.7822265625 235.7747802734375 240.30743408203125 246.359954833984375 252.2695770263671875 258.9727783203125 278.268218994140625 297.89532470703125 327.51068115234375 337.3382568359375 332.824188232421875 348.415985107421875 371.62591552734375 379.5523681640625 362.17425537109375
233.4189300537109375 224.367095947265625 215.9860382080078125 211.2209320068359375 209.643402099609375 210.029449462890625 209.3506011962890625 211.7375946044921875 209.34039306640625 206.9203643798828125 210.6339874267578125 212.733123779296875 215.5258636474609375 213.3406524658203125 216.2587890625 232.4001922607421875 258.401947021484375 287.423797607421875 294.900299072265625 293.6202392578125 273.905303955078125 270.174468994140625 260.16131591796875 218.0051727294921875 184.427459716796875 180.6246795654296875 168.657440185546875 150.910797119140625 141.6379852294921875 123.75299072265625 113.1157684326171875 110.60186004638671875 109.95023345947265625 109.9333648681640625 110.89675140380859375 119.06368255615234375 131.1077117919921875 145.0286712646484375 154.2341156005859375 141.882537841796875 145.26531982421875 149.264556884765625 149.1847076416015625 149.394012451171875 154.180145263671875 184.7059173583984375 214.3412322998046875 222.352386474609375 240.0502166748046875 251.7021484375 256.650054931640625 269.047119140625 255.95635986328125 246.580841064453125 253.6017913818359375 260.14996337890625 267.35125732421875 288.163848876953125 292.1744384765625 305.02655029296875 318.062835693359375 331.941162109375 354.0809326171875 374.93255615234375 400.318206787109375 425.592742919921875 432.69915771484375 443.37652587890625 465.069915771484375 490.08526611328125 524.22991943359375 562.3201904296875 592.0560302734375 624.59368896484375 675.32574462890625 733.53497314453125 760.19049072265625 783.160888671875 808.943359375 862.2100830078125 924.4422607421875 947.15789794921875 937.19610595703125 957.237060546875 1008.40484619140625 1061.8114013671875 1110.148193359375 1111.308349609375 1054.3231201171875 999.673828125 981.27679443359375 953.87921142578125 873.63397216796875 818.287109375 789.03582763671875 780.42791748046875 820.7998046875 839.19091796875 795.4735107421875 764.7799072265625 726.6961669921875 667.2625732421875 624.8575439453125 566.79345703125 506.96649169921875 482.9423828125 474.334228515625 433.962493896484375 380.49853515625 336.9608154296875 290.02423095703125 263.152557373046875 254.45489501953125 248.2190399169921875 241.4051055908203125 236.7542724609375 237.388458251953125 236.8347015380859375 235.2718048095703125 231.807525634765625 231 231 231 231 231 231 231 231 231 231 231.0251617431640625 231.695953369140625 232.1989898681640625 231.2487335205078125 231 231 231 231 231 231 231 231 232.1896514892578125 235.976898193359375 239.181488037109375 239.242340087890625 239.1476287841796875 240.1806793212890625 242.300811767578125 248.6114959716796875 254.0366058349609375 260.64263916015625 267.4022216796875 291.68475341796875 312.375823974609375 346.448272705078125 359.065521240234375 347.33642578125 358.256866455078125 375.133544921875 368.507720947265625 355.29229736328125
228.110626220703125 222.5092315673828125 216.115020751953125 216.6522674560546875 215.019775390625 211.52484130859375 210.71826171875 213.005828857421875 208.5726470947265625 205.495513916015625 210.4488067626953125 211.814544677734375 211.5034637451171875 209.67266845703125 212.9987030029296875 224.600616455078125 250.923553466796875 275.056732177734375 293.6846923828125 297.45672607421875 276.62554931640625 263.924072265625 262.41748046875 223.1191558837890625 184.30963134765625 175.5067901611328125 168.0837860107421875 148.748077392578125 142.657501220703125 122.06554412841796875 109.7680206298828125 106.415863037109375 109.515045166015625 117.436492919921875 125.43495941162109375 139.8982391357421875 154.9632110595703125 162.2429046630859375 167.7231292724609375 152.3336181640625 162.488983154296875 171.42730712890625 166.63409423828125 176.91204833984375 168.4234771728515625 173.7794342041015625 191.8507537841796875 210.846405029296875 238.08099365234375 247.9387969970703125 268.023590087890625 288.712249755859375 272.426055908203125 265.53265380859375 277.400787353515625 274.604949951171875 270.13543701171875 271.421173095703125 274.69354248046875 287.463043212890625 300.998809814453125 317.993194580078125 337.51849365234375 355.478302001953125 381.256805419921875 403.09124755859375 410.942108154296875 426.01934814453125 450.481597900390625 471.9998779296875 507.2501220703125 550.536376953125 592.08905029296875 638.91387939453125 695.95166015625 772.9697265625 821.05767822265625 850.4566650390625 852.72747802734375 866.54534912109375 913.0416259765625 968.656005859375 1008.135009765625 1004.51263427734375 1008.114990234375 1036.2137451171875 1067.068115234375 1083.6956787109375 1062.7852783203125 1004.24609375 968.4541015625 964.4278564453125 943.9805908203125 890.97747802734375 824.11138916015625 764.04266357421875 753.68939208984375 776.32305908203125 748.53985595703125 731.79217529296875 731.68145751953125 682.99945068359375 624.957275390625 570.56756591796875 516.41888427734375 467.47332763671875 438.40643310546875 399.596771240234375 358.202545166015625 324.263458251953125 296.4150390625 271.589935302734375 258.9444580078125 251.5835418701171875 244.9249114990234375 240.611053466796875 238.588623046875 236.8830718994140625 234.381072998046875 231.159332275390625 231 231 231 231 231 231 231 231 231 231 231 231.2738494873046875 231.1648406982421875 231 231 231 231 231 231 231 231 231.2821502685546875 242.4177398681640625 259.411773681640625 255.0723724365234375 252.804931640625 249.6165924072265625 248.214447021484375 249.0654296875 253.45306396484375 262.0531005859375 268.661865234375 273.648773193359375 299.091705322265625 323.1397705078125 356.798492431640625 380.835693359375 365.83203125 368.803131103515625 369.678924560546875 348.28924560546875 334.464935302734375
226.4653778076171875 222.3533935546875 219.3742523193359375 224.410186767578125 224.418975830078125 218.7332763671875 214.3249969482421875 212.04119873046875 208.424224853515625 206.462493896484375 210.048828125 211.9095916748046875 211.1032562255859375 207.976470947265625 212.752532958984375 220.783203125 237.245849609375 268.5081787109375 296.2537841796875 297.872222900390625 271.80181884765625 263.584014892578125 275.08819580078125 245.0262603759765625 193.3238372802734375 162.7709503173828125 157.1859130859375 144.6515350341796875 139.6279449462890625 122.8203582763671875 108.06386566162109375 106.69482421875 113.16419219970703125 129.6738433837890625 142.2873687744140625 161.4552459716796875 182.791748046875 188.53338623046875 178.1511993408203125 165.77716064453125 186.667449951171875 200.9453887939453125 190.9684295654296875 198.3387451171875 193.3764495849609375 196.3250885009765625 202.7863922119140625 229.9864349365234375 252.81304931640625 257.468292236328125 270.983245849609375 293.63885498046875 282.073333740234375 278.7760009765625 301.730865478515625 301.516326904296875 289.016876220703125 282.4356689453125 281.3828125 288.7415771484375 309.129486083984375 329.72430419921875 348.987823486328125 371.601898193359375 403.146026611328125 420.292724609375 415.9869384765625 428.6317138671875 460.817169189453125 477.518707275390625 507.02252197265625 542.8211669921875 583.7095947265625 636.5882568359375 697.45269775390625 780.8856201171875 849.5157470703125 907.47479248046875 925.6087646484375 926.5052490234375 929.94830322265625 968.42303466796875 1017.07275390625 1030.8624267578125 1004.54217529296875 995.29034423828125 1017.94293212890625 1038.7738037109375 1056.7415771484375 1031.1641845703125 992.32635498046875 975.25408935546875 970.725830078125 948.010498046875 882.11566162109375 790.1258544921875 736.16717529296875 713.798583984375 692.48193359375 688.54046630859375 706.038330078125 686.9366455078125 633.35675048828125 574.86114501953125 525.650634765625 483.509368896484375 454.621734619140625 410.20684814453125 355.78656005859375 318.805694580078125 294.372100830078125 274.504425048828125 262.0145263671875 255.4207763671875 249.23345947265625 244.623321533203125 238.856658935546875 236.2392120361328125 233.3650360107421875 231 231 231 231 231 231 231 231 231 231 231 231 231 231 231 231 231 231 231 231 231 231.2605743408203125 237.8096771240234375 263.412811279296875 279.71563720703125 279.925933837890625 276.766326904296875 262.293243408203125 253.7378692626953125 253.979461669921875 257.409423828125 269.62744140625 276.256927490234375 279.12286376953125 306.350860595703125 332.774261474609375 362.609130859375 396.536376953125 387.643890380859375 373.699920654296875 357.052337646484375 333.923126220703125 321.204681396484375
228.128082275390625 223.9498748779296875 222.4592132568359375 227.9029541015625 230.645843505859375 228.4502105712890625 225.3280792236328125 221.1582183837890625 215.404388427734375 209.1247100830078125 208.6168365478515625 210.01593017578125 209.4248809814453125 207.366058349609375 212.7057037353515625 222.337921142578125 238.620452880859375 268.584136962890625 298.142333984375 299.209320068359375 272.878448486328125 256.27197265625 269.373260498046875 254.9285888671875 205.28070068359375 160.6339569091796875 148.62615966796875 145.3929901123046875 140.2420196533203125 117.62885284423828125 107.04285430908203125 107.1472625732421875 119.15569305419921875 145.280548095703125 157.0528411865234375 174.5594329833984375 196.9523162841796875 204.2402191162109375 182.816802978515625 181.520233154296875 213.2577972412109375 223.0261993408203125 217.9035186767578125 221.0138397216796875 214.709991455078125 218.1385040283203125 227.3080291748046875 270.3126220703125 297.041168212890625 296.40203857421875 286.354766845703125 302.166778564453125 295.539215087890625 285.145904541015625 314.915496826171875 321.245513916015625 310.45751953125 306.883880615234375 303.21112060546875 300.154632568359375 314.3724365234375 334.111907958984375 357.83074951171875 390.834686279296875 424.075958251953125 451.48675537109375 453.0657958984375 449.192626953125 475.6658935546875 508.89617919921875 532.13629150390625 559.986572265625 599.38153076171875 642.17388916015625 695.2650146484375 769.5550537109375 846.69964599609375 901.70574951171875 933.866943359375 974.53857421875 975.98907470703125 989.27410888671875 1021.86956787109375 1035.135498046875 991.634521484375 936.2432861328125 937.02203369140625 959.77947998046875 999.55657958984375 1025.2811279296875 1028.7906494140625 1017.1590576171875 998.08563232421875 961.31884765625 915.25299072265625 825.2830810546875 757.619873046875 705.4326171875 667.6490478515625 654.64593505859375 668.52435302734375 676.9825439453125 649.64837646484375 590.8624267578125 532.4833984375 491.1444091796875 465.863006591796875 435.489715576171875 382.493804931640625 332.846466064453125 305.500946044921875 279.37689208984375 261.8839111328125 255.454498291015625 250.795135498046875 246.490020751953125 240.73919677734375 238.5102996826171875 234.571990966796875 231.107757568359375 231 231 231 231 231 231 231 231 231 231 231 231 231 231 231 231 231 231 231 231 234.7260589599609375 259.824981689453125 287.5262451171875 289.249664306640625 292.81951904296875 298.60479736328125 276.792510986328125 259.85723876953125 262.37213134765625 264.913421630859375 280.750396728515625 286.442901611328125 285.53839111328125 313.139984130859375 350.34600830078125 376.874176025390625 408.91424560546875 413.02960205078125 381.700469970703125 350.211822509765625 331.1480712890625 315.526153564453125
237.278778076171875 230.89459228515625 228.0071258544921875 235.77557373046875 240.4196319580078125 241.205535888671875 241.744720458984375 237.90753173828125 228.78155517578125 216.2599334716796875 208.3240966796875 206.325836181640625 201.6972503662109375 208.0882110595703125 224.2061767578125 222.71417236328125 235.7402801513671875 266.4410400390625 294.001434326171875 294.187652587890625 277.223785400390625 249.73919677734375 230.51763916015625 230.315704345703125 197.73699951171875 156.218017578125 135.80499267578125 136.6792449951171875 133.2241973876953125 113.27298736572265625 106.55802154541015625 107.333251953125 122.56049346923828125 144.64971923828125 155.951202392578125 179.8802337646484375 203.7438201904296875 218.1426544189453125 203.607330322265625 197.635009765625 222.3352203369140625 232.7344512939453125 245.958251953125 250.0015716552734375 241.3798980712890625 236.1246337890625 245.918060302734375 287.1500244140625 322.46112060546875 335.68316650390625 316.3858642578125 319.1600341796875 305.82049560546875 291.6273193359375 312.72039794921875 334.4693603515625 340.04132080078125 335.1080322265625 326.5843505859375 311.53082275390625 311.859466552734375 329.227142333984375 361.311553955078125 393.794586181640625 421.282135009765625 455.348968505859375 477.6451416015625 480.954864501953125 496.203887939453125 526.9759521484375 562.17626953125 591.7587890625 624.42510986328125 670.46624755859375 722.375244140625 773.23065185546875 822.607666015625 865.27362060546875 905.70782470703125 965.87347412109375 1014.29095458984375 1038.4244384765625 1041.12646484375 1020.6495361328125 972.851806640625 903.7117919921875 872.7926025390625 893.95782470703125 932.78289794921875 969.30364990234375 996.824951171875 1013.15521240234375 1016.47320556640625 994.19171142578125 950.0963134765625 881.58197021484375 802.31817626953125 735.1402587890625 686.297119140625 653.03582763671875 630.9222412109375 637.1744384765625 646.87744140625 613.4075927734375 551.87921142578125 503.5289306640625 469.052642822265625 443.61016845703125 396.894683837890625 347.929351806640625 313.67645263671875 284.745697021484375 264.1776123046875 255.719390869140625 251.54205322265625 246.4105072021484375 244.8780517578125 244.2811126708984375 240.2816619873046875 233.7396392822265625 231 231 231 231 231 231 231 231 231 231 231 231 231 231 231 231 231 231 231.0418548583984375 233.9240264892578125 250.2076568603515625 278.196044921875 290.76995849609375 283.061676025390625 288.140411376953125 293.28375244140625 277.184051513671875 267.138519287109375 280.595855712890625 285.48712158203125 300.409576416015625 298.134613037109375 295.199493408203125 320.207733154296875 358.0721435546875 396.59625244140625 433.1531982421875 435.857635498046875 393.437164306640625 352.806732177734375 330.502716064453125 313.194915771484375
245.5417022705078125 234.102264404296875 232.959564208984375 241.6385955810546875 248.2457275390625 246.746856689453125 244.86798095703125 241.5977630615234375 234.5942840576171875 223.3170318603515625 210.0825653076171875 201.1064300537109375 188.419403076171875 205.7481689453125 239.0963287353515625 241.7093963623046875 242.9217987060546875 272.558837890625 290.547027587890625 288.465118408203125 268.4661865234375 245.6666107177734375 207.2805328369140625 196.7953338623046875 177.436553955078125 149.9085693359375 128.9365386962890625 126.014923095703125 124.34261322021484375 111.11835479736328125 103.96387481689453125 106.27832794189453125 115.8879241943359375 135.9222564697265625 153.7763519287109375 177.6955108642578125 213.075836181640625 237.0462493896484375 222.2843780517578125 214.961181640625 230.9250030517578125 237.80023193359375 255.5902099609375 264.944580078125 261.594879150390625 248.72735595703125 256.206146240234375 287.954437255859375 326.466217041015625 355.156585693359375 356.940277099609375 348.8189697265625 319.612823486328125 301.967926025390625 314.0150146484375 331.099700927734375 354.327789306640625 355.453948974609375 337.51947021484375 332.8936767578125 325.068695068359375 324.673858642578125 350.31011962890625 380.044219970703125 406.163970947265625 445.726104736328125 480.19769287109375 504.618011474609375 519.95233154296875 542.422607421875 586.9869384765625 628.6256103515625 663.41290283203125 698.80267333984375 741.589599609375 766.88372802734375 790.65484619140625 839.1893310546875 885.79669189453125 946.87750244140625 1008.208251953125 1053.4661865234375 1062.046142578125 1019.460205078125 947.27252197265625 865.284423828125 827.302978515625 845.23919677734375 877.19354248046875 901.75140380859375 921.5054931640625 935.06396484375 942.51513671875 953.43585205078125 948.2525634765625 876.9429931640625 814.54345703125 760.50396728515625 710.7142333984375 661.406005859375 618.13653564453125 601.92498779296875 625.06475830078125 617.3916015625 570.53387451171875 511.945648193359375 470.403167724609375 445.659423828125 400.3997802734375 355.908905029296875 317.67236328125 289.493743896484375 268.233245849609375 256.56890869140625 252.450714111328125 247.1147003173828125 246.616363525390625 246.05609130859375 243.8498992919921875 237.589080810546875 231.2617950439453125 231 231 231 231 231 231 231 231 231 231 231 231 231 231 231 231 231.0677490234375 231.8272552490234375 237.3007354736328125 253.2840728759765625 273.072479248046875 275.512298583984375 266.903656005859375 273.988006591796875 274.128143310546875 269.08184814453125 274.084747314453125 299.833038330078125 315.10894775390625 318.500762939453125 307.380279541015625 303.917022705078125 326.0777587890625 362.45526123046875 399.2568359375 438.3660888671875 436.723876953125 393.01593017578125 346.23590087890625 322.0294189453125 307.838775634765625
247.0795745849609375 235.773468017578125 240.1067962646484375 245.607818603515625 250.471160888671875 250.5162353515625 248.036376953125 247.390350341796875 248.9083251953125 241.603973388671875 224.392364501953125 203.5005035400390625 184.0499420166015625 195.26373291015625 226.880157470703125 249.99951171875 254.2017059326171875 281.66180419921875 294.2091064453125 286.914520263671875 264.946441650390625 235.2117156982421875 209.469573974609375 211.5048828125 195.2013092041015625 160.048004150390625 128.325927734375 124.64400482177734375 131.777069091796875 114.61197662353515625 103.28588104248046875 105.48232269287109375 109.78919219970703125 138.6498565673828125 163.8436279296875 188.9016876220703125 220.090423583984375 243.4649658203125 234.6310272216796875 228.799530029296875 239.5725555419921875 251.522430419921875 258.952667236328125 262.7208251953125 263.300567626953125 256.581817626953125 263.970458984375 299.0179443359375 338.1748046875 373.000152587890625 393.980072021484375 374.4842529296875 331.25177001953125 308.380950927734375 321.562255859375 340.55889892578125 363.3453369140625 370.454071044921875 351.78509521484375 350.735565185546875 348.956512451171875 330.373565673828125 341.064453125 371.4588623046875 392.555419921875 431.87109375 466.161590576171875 495.275146484375 515.1905517578125 545.20123291015625 590.7855224609375 633.3775634765625 672.67938232421875 708.5936279296875 731.36224365234375 732.6365966796875 761.2427978515625 809.17901611328125 850.7288818359375 906.143310546875 976.00457763671875 1037.3978271484375 1067.10009765625 1044.5938720703125 976.4031982421875 889.13726806640625 822.16790771484375 816.7352294921875 841.91522216796875 849.20111083984375 864.2626953125 872.49566650390625 873.9613037109375 882.22027587890625 901.17315673828125 844.6390380859375 782.203857421875 743.608154296875 715.2437744140625 662.72979736328125 619.88055419921875 589.24700927734375 600.91485595703125 607.1119384765625 572.42767333984375 526.2978515625 475.762725830078125 441.752197265625 399.491058349609375 357.95458984375 315.89703369140625 287.603607177734375 268.23822021484375 255.59375 252.086151123046875 247.089996337890625 246.7141265869140625 246.5833740234375 246.457855224609375 243.0912322998046875 233.8079071044921875 231 231 230.99029541015625 230.8342437744140625 230.7255859375 230.878753662109375 231.094818115234375 231 231 231 231 231 231 231 231 231 231.225738525390625 234.3113861083984375 240.1884002685546875 247.6971588134765625 256.918548583984375 255.587066650390625 258.5919189453125 265.06121826171875 265.638641357421875 267.419403076171875 278.490936279296875 294.65802001953125 315.220062255859375 324.42401123046875 315.289398193359375 308.161529541015625 328.496368408203125 370.513519287109375 412.025360107421875 440.217987060546875 419.829925537109375 378.04681396484375 342.457000732421875 316.8826904296875 302.9017333984375
248.3156585693359375 243.378753662109375 250.0348358154296875 250.501373291015625 252.25823974609375 254.7860107421875 256.348236083984375 255.2762298583984375 252.8514404296875 244.6874542236328125 228.100341796875 209.2498321533203125 185.4178009033203125 187.185516357421875 209.703887939453125 245.0556488037109375 263.567901611328125 277.5513916015625 276.498321533203125 272.5784912109375 270.160797119140625 245.2084503173828125 224.9318695068359375 223.383941650390625 200.3710479736328125 168.5415496826171875 127.84300994873046875 122.23177337646484375 133.998260498046875 116.17844390869140625 102.0826263427734375 104.35182952880859375 109.68747711181640625 147.8082275390625 179.9460296630859375 215.058837890625 235.276824951171875 248.7379608154296875 249.1302642822265625 246.4893798828125 249.7683563232421875 261.490814208984375 261.993072509765625 257.71142578125 259.698455810546875 262.410308837890625 271.059967041015625 302.4168701171875 333.853790283203125 367.336578369140625 397.02825927734375 385.657073974609375 340.9693603515625 314.883331298828125 324.563323974609375 348.16094970703125 370.496795654296875 382.98907470703125 369.818023681640625 364.75067138671875 362.6192626953125 344.986480712890625 340.963226318359375 363.32257080078125 383.49713134765625 420.673095703125 456.27069091796875 484.23468017578125 505.533660888671875 539.1939697265625 575.3253173828125 610.1632080078125 652.8204345703125 686.8775634765625 694.52154541015625 703.22113037109375 735.003662109375 775.08978271484375 815.0247802734375 871.98089599609375 938.98052978515625 1007.7022705078125 1055.481689453125 1061.49951171875 1006.44891357421875 925.01513671875 836.4259033203125 798.50787353515625 803.97637939453125 808.99658203125 814.2764892578125 817.75958251953125 815.911865234375 819.27685546875 830.3165283203125 804.02294921875 740.6116943359375 700.92388916015625 680.96746826171875 649.9620361328125 617.359130859375 581.23443603515625 580.3302001953125 594.36273193359375 571.12518310546875 538.74847412109375 490.5126953125 459.0743408203125 399.642425537109375 352.7186279296875 309.66607666015625 285.14453125 265.866943359375 252.718963623046875 249.4492340087890625 246.368682861328125 246.10186767578125 246.960235595703125 247.62139892578125 245.4576263427734375 238.3249359130859375 231 231.4158172607421875 232.6182403564453125 230.352935791015625 230.066192626953125 231.6371612548828125 231.8044586181640625 230.992767333984375 231 231 231 231 231 231 231 231 231.06732177734375 233.924163818359375 239.66888427734375 244.892547607421875 248.237030029296875 251.1622467041015625 262.520477294921875 270.932464599609375 269.12811279296875 271.5615234375 282.1883544921875 290.888397216796875 303.775360107421875 318.904388427734375 320.2232666015625 312.246246337890625 328.4014892578125 363.864227294921875 394.003448486328125 411.768646240234375 407.217529296875 374.22894287109375 340.371795654296875 315.403839111328125 301.5115966796875
267.941314697265625 253.2680206298828125 257.51434326171875 256.7921142578125 260.130950927734375 267.772979736328125 274.997650146484375 276.251739501953125 264.5396728515625 255.96319580078125 259.336700439453125 245.97406005859375 206.3702850341796875 186.3719329833984375 193.6371612548828125 229.5427093505859375 263.120635986328125 264.0052490234375 249.57696533203125 258.011810302734375 260.945068359375 249.5730743408203125 240.7916717529296875 215.6827239990234375 178.7299041748046875 155.3961181640625 123.71157073974609375 115.78980255126953125 121.28171539306640625 107.58246612548828125 99.24609375 103.21320343017578125 113.8621368408203125 155.79022216796875 191.285003662109375 225.3365325927734375 248.3511199951171875 257.9466552734375 256.207733154296875 250.9564361572265625 254.555267333984375 261.969085693359375 258.03948974609375 253.1902313232421875 258.533050537109375 264.507843017578125 274.842926025390625 298.833770751953125 327.222747802734375 363.288421630859375 399.7044677734375 399.7939453125 356.964447021484375 328.2877197265625 330.2119140625 346.2003173828125 369.607666015625 389.519073486328125 389.966949462890625 384.057159423828125 380.0977783203125 367.88800048828125 365.2939453125 370.4759521484375 383.217437744140625 418.83929443359375 454.6463623046875 486.861083984375 507.596923828125 533.5084228515625 562.470703125 597.8687744140625 638.48822021484375 665.3485107421875 668.346923828125 679.83721923828125 709.62127685546875 740.89263916015625 787.68310546875 843.47113037109375 904.3363037109375 974.59625244140625 1020.40985107421875 1053.8746337890625 1032.6531982421875 951.8638916015625 864.884521484375 801.22967529296875 780.176025390625 774.64910888671875 770.716552734375 769.21771240234375 768.24603271484375 764.989990234375 772.898681640625 748.5316162109375 699.80548095703125 659.1680908203125 636.5748291015625 612.04559326171875 591.701904296875 556.9541015625 549.864501953125 573.6676025390625 561.63726806640625 535.8187255859375 511.93719482421875 474.88031005859375 398.633270263671875 345.633026123046875 306.73211669921875 285.306976318359375 265.226226806640625 252.037322998046875 248.40997314453125 246.48944091796875 246.741790771484375 247.200592041015625 247.8909454345703125 246.550384521484375 249.701171875 251.658416748046875 256.07244873046875 258.49322509765625 242.6460723876953125 236.106842041015625 235.88433837890625 232.8785552978515625 230.9993896484375 231 231 231 231 231 231 231 231 231 232.69036865234375 237.612762451171875 243.03240966796875 248.454498291015625 256.477996826171875 272.951385498046875 281.197235107421875 278.642059326171875 280.9481201171875 294.539306640625 299.100982666015625 305.86407470703125 315.172027587890625 320.6895751953125 317.857086181640625 327.32318115234375 352.1866455078125 369.174346923828125 389.679962158203125 407.627471923828125 381.20318603515625 341.729888916015625 318.620025634765625 301.314208984375
285.94134521484375 265.671112060546875 264.291015625 269.942413330078125 280.6920166015625 290.62200927734375 287.8582763671875 292.77764892578125 283.195465087890625 272.987335205078125 280.99859619140625 279.717681884765625 249.678466796875 209.0981292724609375 186.216217041015625 212.6203155517578125 249.8245849609375 259.538055419921875 229.790069580078125 234.007843017578125 248.3486785888671875 259.614410400390625 236.3693695068359375 193.75787353515625 156.885711669921875 138.8408203125 120.77925872802734375 111.44411468505859375 107.436798095703125 101.48915863037109375 98.44712066650390625 106.14606475830078125 129.0491790771484375 165.4047088623046875 191.78533935546875 217.7902069091796875 238.2301483154296875 251.820709228515625 237.7615203857421875 235.044097900390625 246.895904541015625 253.442962646484375 246.7914276123046875 248.9833984375 258.150360107421875 260.86968994140625 273.4520263671875 295.363372802734375 325.36273193359375 360.1297607421875 400.80340576171875 412.704681396484375 378.89788818359375 345.2537841796875 345.4566650390625 364.945098876953125 377.813140869140625 390.582672119140625 403.77850341796875 411.2757568359375 414.0010986328125 396.270843505859375 390.73681640625 395.8671875 398.398895263671875 426.5511474609375 466.578857421875 502.22930908203125 524.595947265625 546.76605224609375 569.88629150390625 600.30126953125 626.97625732421875 636.18988037109375 645.35113525390625 658.83447265625 684.73394775390625 718.874755859375 767.52716064453125 834.5985107421875 893.39532470703125 946.1138916015625 977.92498779296875 1009.254638671875 1028.477783203125 987.85821533203125 906.6270751953125 825.76922607421875 771.50634765625 735.28082275390625 711.728759765625 702.57086181640625 703.50146484375 698.503662109375 697.7425537109375 686.53350830078125 664.1883544921875 623.231689453125 585.89532470703125 568.46563720703125 549.37603759765625 523.77362060546875 518.0035400390625 545.8160400390625 541.760009765625 511.985198974609375 495.330535888671875 465.93408203125 392.69366455078125 341.870269775390625 303.35174560546875 283.3179931640625 265.09674072265625 251.684234619140625 247.945159912109375 246.27056884765625 246.918212890625 248.372772216796875 248.0971832275390625 246.2318572998046875 248.920501708984375 257.349365234375 266.231292724609375 268.747344970703125 256.541656494140625 244.297821044921875 240.80560302734375 236.686248779296875 232.2613067626953125 231.1977996826171875 231 231.001251220703125 230.96197509765625 230.894134521484375 230.9156951904296875 231.01226806640625 231 231 232.644866943359375 240.0780792236328125 244.6483154296875 249.8274688720703125 262.96051025390625 281.224822998046875 288.062591552734375 289.253662109375 294.023406982421875 318.22369384765625 329.580902099609375 330.7244873046875 336.74237060546875 330.27392578125 325.376983642578125 328.69921875 353.333526611328125 376.04168701171875 412.38482666015625 431.165283203125 396.892120361328125 353.33929443359375 319.607086181640625 297.330291748046875
295.7735595703125 293.813629150390625 287.6436767578125 298.785919189453125 305.901214599609375 308.3450927734375 302.264495849609375 292.451690673828125 261.74786376953125 250.7517547607421875 265.86627197265625 283.706817626953125 271.859283447265625 238.551177978515625 194.5931396484375 191.331207275390625 221.2848358154296875 239.0423736572265625 218.2929840087890625 237.8983612060546875 265.64581298828125 266.10516357421875 228.5947265625 181.541778564453125 145.0977325439453125 127.22838592529296875 118.361358642578125 108.7863006591796875 101.9634246826171875 99.9966888427734375 99.545379638671875 109.0094757080078125 134.9438018798828125 173.2966461181640625 201.4440460205078125 213.167694091796875 225.7454376220703125 234.326904296875 218.0320587158203125 225.9585113525390625 236.266387939453125 239.3219146728515625 238.8444366455078125 242.826995849609375 253.6623077392578125 253.3329925537109375 261.0584716796875 281.326995849609375 313.5865478515625 350.77435302734375 384.31927490234375 388.31591796875 382.24615478515625 349.91455078125 346.3824462890625 370.0220947265625 386.7674560546875 386.051788330078125 391.2662353515625 415.54644775390625 439.633026123046875 426.190032958984375 421.533905029296875 432.38262939453125 439.229583740234375 450.9046630859375 485.45355224609375 527.46197509765625 546.95721435546875 561.57965087890625 580.65814208984375 603.32080078125 615.0240478515625 616.38739013671875 629.00994873046875 639.171142578125 668.47784423828125 703.120361328125 753.83465576171875 822.92071533203125 864.23040771484375 904.38226318359375 935.890625 961.76629638671875 984.4625244140625 980.85040283203125 954.40203857421875 894.9156494140625 812.51959228515625 730.65045166015625 681.5648193359375 654.75762939453125 651.55535888671875 643.63934326171875 644.03692626953125 638.11981201171875 627.63525390625 597.20257568359375 548.0732421875 524.84185791015625 505.589935302734375 490.02032470703125 487.638458251953125 515.45623779296875 509.548370361328125 476.474578857421875 455.440887451171875 437.821258544921875 383.364105224609375 333.971771240234375 303.598602294921875 292.926788330078125 276.53192138671875 255.880615234375 247.2699737548828125 245.9549560546875 246.96148681640625 248.16143798828125 247.4616546630859375 245.5343170166015625 244.8932647705078125 246.81658935546875 250.2052459716796875 253.41497802734375 252.970306396484375 249.857666015625 243.744842529296875 240.384796142578125 237.822418212890625 234.2492523193359375 231.5808258056640625 231.7884063720703125 231.9669342041015625 232.9143524169921875 232.6185302734375 231.665191650390625 231.0582733154296875 231 232.448211669921875 240.1525421142578125 244.057373046875 247.759368896484375 273.856964111328125 297.7943115234375 302.552276611328125 304.459014892578125 315.00732421875 347.590667724609375 368.00482177734375 373.042022705078125 374.2725830078125 355.830078125 337.902496337890625 329.917205810546875 355.312286376953125 390.768890380859375 440.420623779296875 463.892730712890625 411.06201171875 361.69677734375 323.5714111328125 294.829010009765625
318.715545654296875 329.67864990234375 330.264556884765625 347.980499267578125 338.007965087890625 316.590545654296875 299.13458251953125 262.09234619140625 228.5501708984375 214.7877044677734375 228.7870635986328125 244.6999053955078125 247.5674591064453125 242.1327667236328125 209.214141845703125 179.84283447265625 201.1175384521484375 216.3797607421875 213.591278076171875 244.518310546875 277.798797607421875 257.102020263671875 216.353973388671875 172.399932861328125 136.9226531982421875 122.59765625 114.4564208984375 106.054046630859375 100.0588836669921875 98.95377349853515625 99.92256927490234375 107.30144500732421875 136.573638916015625 177.162353515625 204.3108367919921875 206.2470703125 215.0234222412109375 213.5284423828125 203.971405029296875 212.344696044921875 223.710968017578125 229.6645355224609375 235.819183349609375 237.3485107421875 245.3628387451171875 245.9368896484375 253.656646728515625 274.8612060546875 310.63214111328125 348.447052001953125 357.172607421875 349.921142578125 366.193817138671875 350.1728515625 338.70166015625 359.299896240234375 380.516937255859375 375.833251953125 376.411865234375 406.307525634765625 430.125 433.75775146484375 449.76409912109375 466.09161376953125 476.40057373046875 483.566131591796875 506.272430419921875 543.5361328125 562.511474609375 569.48736572265625 579.25970458984375 589.48760986328125 593.455078125 596.09722900390625 606.3017578125 621.34539794921875 652.7974853515625 681.052001953125 725.79644775390625 784.4063720703125 830.22454833984375 875.8770751953125 917.37286376953125 941.99493408203125 952.536376953125 952.51953125 961.30120849609375 933.84246826171875 858.6346435546875 745.80535888671875 676.87200927734375 626.0919189453125 607.24102783203125 596.8643798828125 598.28619384765625 597.10382080078125 599.6373291015625 581.40130615234375 523.5284423828125 487.81170654296875 472.3907470703125 463.48968505859375 462.92816162109375 490.722381591796875 484.2332763671875 449.493865966796875 425.865570068359375 408.018585205078125 365.477508544921875 328.488372802734375 311.15521240234375 309.805755615234375 288.298858642578125 266.899749755859375 250.3914794921875 246.6337432861328125 247.1796722412109375 247.4680938720703125 247.23675537109375 245.4556121826171875 243.0062103271484375 242.1092987060546875 243.5438079833984375 246.211212158203125 249.7657012939453125 253.579925537109375 246.1174468994140625 241.2901458740234375 239.58648681640625 237.4443206787109375 236.1224517822265625 236.5134429931640625 237.7388458251953125 240.898895263671875 239.714508056640625 236.052337646484375 232.5660552978515625 231 231.769866943359375 238.1833953857421875 243.139312744140625 251.3543701171875 286.37255859375 300.860748291015625 301.152984619140625 311.239227294921875 338.490081787109375 386.626617431640625 419.177520751953125 425.277923583984375 423.0596923828125 390.95819091796875 357.9571533203125 337.59344482421875 357.78790283203125 396.31524658203125 449.054351806640625 463.016937255859375 401.934722900390625 350.56494140625 318.38092041015625 295.632537841796875
340.53668212890625 347.35443115234375 368.2947998046875 361.00323486328125 332.651641845703125 307.45025634765625 273.9189453125 225.2733154296875 219.3199310302734375 229.4751129150390625 219.453338623046875 201.9039306640625 194.3723907470703125 201.6126861572265625 213.6251220703125 196.30426025390625 180.29339599609375 195.668182373046875 215.8013458251953125 250.9909820556640625 270.33282470703125 240.096405029296875 193.7892913818359375 153.2449188232421875 129.1265716552734375 114.8771820068359375 105.7774810791015625 100.56327056884765625 97.63580322265625 98.48253631591796875 100.7134857177734375 110.63991546630859375 135.9685821533203125 167.17864990234375 189.442108154296875 196.1605682373046875 204.333465576171875 195.992431640625 194.0194549560546875 204.003265380859375 211.584747314453125 222.336212158203125 234.4854888916015625 233.4546966552734375 235.49896240234375 237.0831298828125 246.8611907958984375 271.231475830078125 310.99237060546875 336.72796630859375 314.696136474609375 311.8565673828125 347.57562255859375 336.974517822265625 333.430023193359375 350.80230712890625 363.04486083984375 361.70440673828125 368.470672607421875 387.998077392578125 399.544036865234375 415.694610595703125 461.1961669921875 495.001220703125 524.86871337890625 548.2142333984375 565.0784912109375 568.0220947265625 563.04815673828125 559.33648681640625 555.3699951171875 564.85546875 572.88446044921875 579.00640869140625 590.4375 606.51171875 632.9788818359375 655.27783203125 692.62744140625 749.30487060546875 808.80682373046875 874.8697509765625 924.39324951171875 942.072265625 930.6827392578125 912.95013427734375 914.8057861328125 919.28033447265625 865.255615234375 777.344482421875 678.98797607421875 613.4161376953125 579.78533935546875 562.68023681640625 562.45782470703125 568.08953857421875 572.55767822265625 560.39227294921875 507.303466796875 462.23516845703125 442.9537353515625 435.05780029296875 433.9781494140625 459.69061279296875 469.59014892578125 440.7022705078125 407.379547119140625 373.5106201171875 348.66351318359375 326.60858154296875 314.514556884765625 308.03179931640625 287.70111083984375 276.137115478515625 262.140594482421875 250.6684112548828125 249.248138427734375 247.89312744140625 247.77490234375 245.68365478515625 242.908660888671875 241.6573028564453125 241.1607666015625 242.2456512451171875 248.4080657958984375 256.10650634765625 249.144805908203125 241.6653289794921875 239.297454833984375 240.2033233642578125 241.851806640625 242.621795654296875 244.1341705322265625 245.4405517578125 244.1525726318359375 242.0555419921875 237.9405670166015625 231.3521728515625 231.127166748046875 236.4963531494140625 243.638458251953125 258.981353759765625 297.830230712890625 289.140350341796875 276.112274169921875 299.330474853515625 354.27349853515625 405.0333251953125 454.479034423828125 483.875823974609375 474.609039306640625 422.38897705078125 373.197998046875 345.195159912109375 359.718048095703125 399.308929443359375 448.794677734375 448.331939697265625 379.40765380859375 331.611572265625 298.160400390625 283.04833984375
352.397064208984375 362.34246826171875 378.3419189453125 347.99468994140625 309.525909423828125 293.103546142578125 261.670440673828125 237.048126220703125 263.542388916015625 278.869354248046875 261.34466552734375 238.5055694580078125 209.9279632568359375 186.185211181640625 189.50653076171875 194.1862945556640625 173.82073974609375 195.69659423828125 231.116943359375 261.044677734375 258.4517822265625 218.0471343994140625 170.2630157470703125 140.7648773193359375 119.85491943359375 103.80335235595703125 101.19402313232421875 102.59342193603515625 104.82700347900390625 106.13829803466796875 110.311004638671875 125.9836578369140625 147.9739227294921875 172.5119171142578125 186.5329742431640625 192.2894134521484375 195.415557861328125 189.89532470703125 187.3431549072265625 197.36492919921875 203.790771484375 222.664398193359375 230.26153564453125 228.584381103515625 229.33709716796875 235.2685394287109375 247.12042236328125 266.13519287109375 299.902191162109375 323.491485595703125 296.673095703125 295.344329833984375 335.38824462890625 325.12335205078125 327.703399658203125 332.116607666015625 337.219512939453125 349.13079833984375 361.380279541015625 371.681396484375 385.753173828125 417.04266357421875 463.83721923828125 502.3353271484375 543.53363037109375 574.91961669921875 598.505615234375 584.8367919921875 556.82342529296875 545.57684326171875 541.998046875 549.4635009765625 557.790283203125 565.988525390625 577.4986572265625 594.04681396484375 613.2342529296875 637.084716796875 681.0234375 742.5802001953125 800.9381103515625 860.6956787109375 920.12286376953125 949.64068603515625 928.285400390625 888.93719482421875 874.8052978515625 882.16754150390625 844.6622314453125 766.08154296875 681.93634033203125 607.850830078125 568.77471923828125 545.4599609375 533.489013671875 540.31451416015625 539.38299560546875 528.13726806640625 494.233245849609375 447.0648193359375 420.164764404296875 414.643310546875 414.56134033203125 438.669281005859375 457.722869873046875 438.49554443359375 404.674957275390625 366.675567626953125 343.48577880859375 322.591094970703125 303.03765869140625 287.752716064453125 277.041473388671875 273.952789306640625 268.38604736328125 256.00213623046875 250.38653564453125 247.4033355712890625 246.4100799560546875 245.03485107421875 243.68524169921875 241.4031982421875 240.512847900390625 240.2973175048828125 245.8189544677734375 254.2655029296875 248.8203887939453125 241.0889434814453125 238.9412078857421875 240.01092529296875 242.264404296875 243.8991851806640625 245.346710205078125 245.647674560546875 244.912811279296875 244.6056976318359375 243.021392822265625 232.7744140625 231 232.92755126953125 239.2409515380859375 255.392486572265625 282.311676025390625 273.3759765625 266.142364501953125 291.438690185546875 347.523284912109375 401.598175048828125 442.9932861328125 481.632568359375 488.137481689453125 434.411285400390625 378.712371826171875 346.200592041015625 361.334259033203125 400.87744140625 427.770843505859375 407.51507568359375 353.709228515625 314.268035888671875 278.496826171875 260.646881103515625
361.389007568359375 370.085052490234375 385.482513427734375 357.18707275390625 311.073883056640625 275.141510009765625 246.3338623046875 267.9390869140625 309.1114501953125 324.2879638671875 311.347076416015625 292.090362548828125 260.676116943359375 215.662139892578125 180.388702392578125 166.2643585205078125 163.01080322265625 194.736175537109375 238.9645538330078125 257.4937744140625 243.07293701171875 193.8378753662109375 154.94781494140625 144.39306640625 123.9189605712890625 103.59357452392578125 99.122894287109375 105.9971466064453125 116.18880462646484375 125.56009674072265625 130.8169097900390625 149.33685302734375 179.3296661376953125 201.0694427490234375 199.2147064208984375 199.28973388671875 194.5329742431640625 186.0514068603515625 185.7880096435546875 190.24053955078125 197.3412933349609375 219.4340057373046875 221.4662017822265625 219.4675140380859375 227.588623046875 236.0533599853515625 244.2917022705078125 250.324676513671875 279.896148681640625 304.3494873046875 282.72882080078125 276.89447021484375 314.28857421875 306.0986328125 310.3834228515625 318.764190673828125 337.797393798828125 354.54571533203125 367.362152099609375 379.7164306640625 397.303558349609375 430.2091064453125 476.096343994140625 516.30621337890625 556.2047119140625 589.32635498046875 609.35345458984375 588.2320556640625 548.7220458984375 528.90478515625 530.2879638671875 538.37054443359375 543.4842529296875 553.4124755859375 562.52618408203125 578.197021484375 599.73870849609375 626.40679931640625 666.28997802734375 720.18548583984375 780.3671875 837.57623291015625 896.57122802734375 942.36572265625 926.65576171875 865.562255859375 816.9002685546875 813.82373046875 815.5052490234375 760.9693603515625 686.553466796875 615.6292724609375 572.49365234375 539.2769775390625 518.18511962890625 511.95928955078125 514.05560302734375 503.67169189453125 477.10162353515625 434.1456298828125 395.80548095703125 392.206756591796875 392.00927734375 412.558380126953125 437.803314208984375 421.713134765625 390.93243408203125 358.397369384765625 337.23675537109375 308.695037841796875 288.76806640625 282.13134765625 280.09124755859375 276.889068603515625 268.55487060546875 259.389556884765625 250.28680419921875 247.02197265625 245.69793701171875 244.44586181640625 244.0400238037109375 241.5100860595703125 240.6915740966796875 239.9340057373046875 243.4440155029296875 254.0059661865234375 250.2134857177734375 240.3631591796875 239.09954833984375 239.8649139404296875 241.1678466796875 242.661529541015625 243.9461822509765625 243.424774169921875 242.8816986083984375 243.6305694580078125 243.670745849609375 234.596466064453125 231 231 233.1322021484375 239.1940460205078125 244.2117767333984375 244.16925048828125 261.1907958984375 284.93084716796875 335.938568115234375 387.84906005859375 430.898040771484375 470.402923583984375 472.361572265625 427.26422119140625 380.368560791015625 345.489532470703125 348.166473388671875 371.39215087890625 383.0811767578125 366.3931884765625 322.820709228515625 294.071990966796875 258.624267578125 240.0268707275390625
370.414459228515625 373.940673828125 380.411346435546875 358.52447509765625 310.594207763671875 266.929931640625 250.255126953125 298.048187255859375 345.272247314453125 358.53515625 346.914886474609375 322.6944580078125 296.725982666015625 255.482666015625 209.588958740234375 181.75946044921875 165.0810699462890625 165.2454681396484375 186.490142822265625 204.477569580078125 213.1698455810546875 172.2061309814453125 141.7784881591796875 135.0960235595703125 122.4341583251953125 111.08359527587890625 96.19605255126953125 97.99105072021484375 113.45783233642578125 129.630523681640625 143.3531494140625 160.77313232421875 187.85101318359375 199.218353271484375 197.1502227783203125 203.5505523681640625 194.673187255859375 180.4640960693359375 185.239044189453125 186.2400054931640625 189.851531982421875 211.2975616455078125 209.4879302978515625 209.3139495849609375 224.350006103515625 226.98797607421875 235.47161865234375 237.2323760986328125 256.06317138671875 280.658233642578125 264.1385498046875 262.5299072265625 298.723968505859375 289.904541015625 297.0433349609375 315.161529541015625 338.9451904296875 360.400634765625 366.802581787109375 387.91082763671875 417.623779296875 442.964691162109375 485.608612060546875 522.63525390625 554.23345947265625 578.64862060546875 585.64532470703125 567.49700927734375 536.7535400390625 520.3284912109375 521.61883544921875 528.49005126953125 532.86248779296875 539.00634765625 547.67974853515625 564.2230224609375 587.16552734375 615.832763671875 647.52069091796875 696.8199462890625 761.337890625 830.65948486328125 880.52813720703125 917.79248046875 905.0919189453125 848.8367919921875 788.74041748046875 760.7664794921875 768.49505615234375 761.69036865234375 707.91302490234375 629.75677490234375 577.51312255859375 535.654541015625 506.35552978515625 483.6649169921875 475.784454345703125 468.47479248046875 443.294464111328125 419.504608154296875 381.665618896484375 373.085235595703125 369.512359619140625 390.317108154296875 420.301177978515625 413.843292236328125 378.798980712890625 349.41265869140625 331.84466552734375 302.4296875 293.25677490234375 300.69378662109375 302.174407958984375 297.206390380859375 281.622283935546875 273.4263916015625 255.9454498291015625 247.8785858154296875 245.33502197265625 243.5501708984375 243.8802490234375 242.0516815185546875 240.7777557373046875 239.62542724609375 242.74884033203125 255.4718780517578125 253.1245574951171875 241.5387115478515625 240.268829345703125 240.161376953125 240.6220855712890625 241.90216064453125 242.6849365234375 241.3813323974609375 240.54937744140625 240.8927764892578125 241.3592681884765625 238.4445343017578125 231.54364013671875 231 231 231 231.7437286376953125 238.360748291015625 257.24951171875 279.273651123046875 323.662078857421875 386.303802490234375 432.72918701171875 454.83575439453125 441.6163330078125 403.726165771484375 370.543426513671875 342.145050048828125 328.907012939453125 332.43389892578125 333.1878662109375 321.5277099609375 288.908050537109375 265.790496826171875 248.30108642578125 235.8352203369140625
341.52862548828125 352.93359375 348.47882080078125 330.495819091796875 297.26812744140625 263.16424560546875 255.0532073974609375 302.31732177734375 348.51898193359375 360.546966552734375 336.18157958984375 306.852203369140625 295.66790771484375 281.6533203125 255.651092529296875 237.634033203125 208.1269073486328125 164.5573883056640625 130.2223968505859375 132.9792633056640625 161.236083984375 146.7859039306640625 132.95501708984375 124.69011688232421875 113.71636199951171875 106.86598968505859375 93.99261474609375 92.8412017822265625 103.4662017822265625 121.88463592529296875 144.7584381103515625 172.71490478515625 189.4622802734375 184.4636077880859375 188.99310302734375 199.4738922119140625 190.241546630859375 176.206207275390625 182.3372344970703125 180.152374267578125 183.69708251953125 204.143402099609375 201.8106536865234375 204.9983062744140625 217.506256103515625 218.2963714599609375 227.8366546630859375 225.76165771484375 232.78802490234375 249.0479736328125 246.294891357421875 256.63470458984375 275.4615478515625 277.380615234375 287.905364990234375 304.319000244140625 332.5958251953125 361.332550048828125 371.856109619140625 389.340087890625 423.429962158203125 455.115142822265625 491.466552734375 525.123046875 544.93133544921875 560.3134765625 556.4205322265625 543.32659912109375 522.349365234375 510.58087158203125 510.980865478515625 517.3946533203125 520.39141845703125 527.4127197265625 537.6788330078125 550.4219970703125 574.83477783203125 602.87799072265625 629.82122802734375 678.24066162109375 741.69732666015625 810.81390380859375 856.0709228515625 886.1536865234375 876.17620849609375 824.78082275390625 776.67437744140625 733.02398681640625 717.923095703125 730.30438232421875 706.7647705078125 630.8868408203125 577.80206298828125 527.7142333984375 493.292999267578125 466.029815673828125 452.286651611328125 441.76251220703125 421.691009521484375 412.4453125 376.051055908203125 359.156005859375 356.33685302734375 372.80706787109375 407.547210693359375 403.810699462890625 369.997955322265625 346.43658447265625 329.56524658203125 310.75091552734375 308.11077880859375 322.9774169921875 329.586273193359375 320.208160400390625 301.01947021484375 292.23046875 276.262603759765625 253.1231842041015625 245.4229888916015625 242.985382080078125 243.8366241455078125 242.171295166015625 240.858306884765625 239.13653564453125 240.54132080078125 249.7541961669921875 249.6951904296875 241.711578369140625 240.8240814208984375 240.2028961181640625 239.2552032470703125 240.5926513671875 241.1208648681640625 239.971466064453125 239.6916351318359375 239.230682373046875 238.6851959228515625 238.6095428466796875 233.72100830078125 231 231 231 231 235.546722412109375 254.4290008544921875 276.85577392578125 319.432952880859375 385.119232177734375 435.115478515625 447.30487060546875 413.074951171875 373.9632568359375 353.678070068359375 336.031158447265625 319.056884765625 316.25396728515625 306.538055419921875 286.492340087890625 254.429473876953125 240.3671875 238.6989288330078125 235.0579833984375
316.367401123046875 313.491241455078125 324.20013427734375 319.290863037109375 293.6365966796875 272.293365478515625 268.22808837890625 318.085723876953125 342.080810546875 308.099578857421875 278.2481689453125 243.909881591796875 236.263336181640625 234.5309906005859375 230.9912567138671875 226.14447021484375 193.5099639892578125 148.4981689453125 115.94217681884765625 108.82021331787109375 124.53136444091796875 125.74150848388671875 132.442291259765625 125.41046142578125 116.227325439453125 100.98252105712890625 90.019073486328125 100.9680938720703125 110.82938385009765625 136.98956298828125 165.557891845703125 180.6697235107421875 181.31689453125 169.8610687255859375 175.4602508544921875 182.188690185546875 175.295257568359375 174.1116943359375 179.9924774169921875 174.9447174072265625 178.404083251953125 192.485260009765625 199.123779296875 207.3617706298828125 213.074981689453125 216.639007568359375 223.238433837890625 225.354156494140625 228.7038116455078125 237.7814483642578125 245.2695159912109375 263.725433349609375 283.70947265625 281.115020751953125 288.104278564453125 302.105987548828125 325.75177001953125 353.792999267578125 369.01416015625 389.672149658203125 421.539764404296875 465.063385009765625 503.834808349609375 527.29010009765625 524.470703125 528.48016357421875 529.6871337890625 532.9998779296875 523.57611083984375 507.552490234375 501.528472900390625 506.436187744140625 511.4674072265625 519.1160888671875 529.13702392578125 541.2745361328125 563.5208740234375 586.42340087890625 612.60247802734375 658.46173095703125 709.88311767578125 763.4305419921875 813.9486083984375 850.52801513671875 851.0018310546875 805.74786376953125 758.362060546875 722.462890625 692.8067626953125 697.41937255859375 687.81195068359375 626.2222900390625 571.6920166015625 512.81982421875 478.586334228515625 451.79632568359375 435.8492431640625 419.22955322265625 400.10150146484375 396.614593505859375 370.755218505859375 348.6317138671875 347.112640380859375 367.36944580078125 408.976348876953125 394.677825927734375 357.945281982421875 340.13848876953125 325.319915771484375 321.565185546875 325.0963134765625 330.07806396484375 341.415069580078125 337.05511474609375 325.34454345703125 317.47479248046875 304.05950927734375 276.362823486328125 250.7480621337890625 243.9907989501953125 243.1752471923828125 242.167938232421875 242.0938568115234375 240.1936492919921875 239.621063232421875 241.876190185546875 242.5791473388671875 240.37005615234375 240.466766357421875 240.0658416748046875 238.3175048828125 238.666351318359375 239.72064208984375 239.298736572265625 238.813629150390625 238.390655517578125 237.17889404296875 236.740936279296875 234.5865020751953125 231.3272705078125 231 231 231.614166259765625 237.4769134521484375 250.5347442626953125 272.4337158203125 309.838775634765625 366.7303466796875 418.81890869140625 441.9696044921875 422.310028076171875 370.574859619140625 337.5291748046875 324.241607666015625 304.372650146484375 314.345458984375 305.656280517578125 258.9649658203125 233.192535400390625 231.2682952880859375 233.3094940185546875 240.5892333984375
306.90472412109375 270.013336181640625 296.102508544921875 322.5035400390625 305.612823486328125 290.0440673828125 283.684417724609375 324.511993408203125 326.36065673828125 258.240966796875 219.8124542236328125 186.6481781005859375 171.7325286865234375 167.6175079345703125 163.35186767578125 162.5004119873046875 138.8402252197265625 106.49332427978515625 103.93013763427734375 106.4838104248046875 117.96530914306640625 128.6005096435546875 125.95243072509765625 117.727813720703125 110.95728302001953125 94.046783447265625 93.78479766845703125 125.80951690673828125 136.4031524658203125 145.7375030517578125 162.693939208984375 164.83319091796875 167.5298309326171875 162.4633636474609375 165.21807861328125 169.454315185546875 166.6252899169921875 174.2287445068359375 174.801971435546875 173.9217529296875 182.947998046875 196.410308837890625 204.4284210205078125 215.8079833984375 223.91497802734375 228.3062591552734375 230.364593505859375 237.0002288818359375 241.9811553955078125 254.8024444580078125 254.0566253662109375 268.849151611328125 300.017822265625 292.394134521484375 289.391326904296875 301.62060546875 321.831085205078125 349.461090087890625 371.225494384765625 394.0955810546875 430.4246826171875 475.2901611328125 505.068328857421875 512.32989501953125 499.10009765625 494.310455322265625 499.553375244140625 516.09185791015625 524.80340576171875 508.7269287109375 493.6075439453125 492.884674072265625 498.930328369140625 506.126556396484375 517.6910400390625 533.307373046875 547.34173583984375 569.8597412109375 599.95574951171875 641.39111328125 677.41143798828125 717.5399169921875 763.168212890625 806.8035888671875 820.37445068359375 800.10662841796875 750.745849609375 711.470703125 674.68988037109375 658.73699951171875 649.4659423828125 622.52728271484375 568.7940673828125 506.1861572265625 455.82891845703125 424.050048828125 411.079925537109375 399.03704833984375 379.739349365234375 379.94024658203125 363.77777099609375 341.6795654296875 342.45025634765625 361.56256103515625 392.624481201171875 372.70001220703125 339.857818603515625 329.221038818359375 329.281097412109375 342.42645263671875 349.284149169921875 347.799346923828125 354.994049072265625 352.402313232421875 346.33172607421875 341.938140869140625 332.318695068359375 308.535888671875 276.66741943359375 253.262481689453125 244.1099853515625 243.205108642578125 242.426788330078125 240.5450286865234375 239.186370849609375 237.5065460205078125 238.13824462890625 238.64385986328125 239.20159912109375 239.1656494140625 237.7398223876953125 237.1998291015625 238.2868499755859375 239.0304412841796875 238.9527130126953125 237.761199951171875 236.7650909423828125 236.478179931640625 235.3333282470703125 232.5515594482421875 231 231 231.935150146484375 238.1245880126953125 246.65142822265625 263.009735107421875 287.540740966796875 343.2596435546875 404.92425537109375 433.479583740234375 435.429046630859375 386.941436767578125 338.52276611328125 310.34332275390625 289.050872802734375 293.01837158203125 294.032470703125 249.5434112548828125 231.188568115234375 233.9326324462890625 243.9495697021484375 255.910491943359375
302.297760009765625 244.8456878662109375 264.26165771484375 311.161712646484375 306.22271728515625 294.458465576171875 299.93133544921875 324.4532470703125 311.955902099609375 242.6043853759765625 187.2258453369140625 155.2611236572265625 134.706268310546875 126.52051544189453125 124.41802978515625 119.2088470458984375 110.7504425048828125 99.36257171630859375 106.653045654296875 115.11000823974609375 128.3799285888671875 130.7126922607421875 121.17906951904296875 109.623565673828125 94.90807342529296875 89.9235076904296875 107.89925384521484375 143.701812744140625 166.9120941162109375 158.8410491943359375 157.71478271484375 157.1798553466796875 161.15374755859375 168.0669097900390625 177.5061187744140625 183.3879547119140625 178.3225860595703125 175.585723876953125 174.25433349609375 182.6580047607421875 194.8266448974609375 209.3720703125 213.9207000732421875 221.8285369873046875 238.8269500732421875 247.0322265625 251.68634033203125 245.1986846923828125 250.9735565185546875 266.13116455078125 265.82940673828125 273.939697265625 301.927490234375 302.87310791015625 299.27587890625 304.851409912109375 321.76177978515625 346.382049560546875 371.462066650390625 404.33245849609375 442.325897216796875 469.7838134765625 485.276763916015625 483.193756103515625 474.66363525390625 457.766998291015625 470.3792724609375 493.173980712890625 513.31201171875 512.9189453125 495.394744873046875 486.06927490234375 486.945098876953125 492.619415283203125 506.771240234375 516.37506103515625 529.84796142578125 556.89495849609375 588.54669189453125 615.4959716796875 636.83831787109375 668.73089599609375 709.031005859375 753.79998779296875 773.31512451171875 780.93701171875 760.59735107421875 718.845458984375 672.6068115234375 641.26458740234375 616.01751708984375 604.267333984375 563.99237060546875 505.068603515625 455.337371826171875 407.079986572265625 384.09222412109375 375.94390869140625 362.497283935546875 366.927947998046875 358.696746826171875 337.172332763671875 340.04638671875 355.0618896484375 365.59075927734375 356.455169677734375 347.1719970703125 344.6112060546875 354.13970947265625 361.3748779296875 367.82025146484375 364.96630859375 369.415802001953125 365.08392333984375 366.878936767578125 370.26031494140625 366.396697998046875 344.13641357421875 311.372802734375 279.63714599609375 255.3834991455078125 246.1192474365234375 240.5120849609375 239.0111236572265625 237.4041290283203125 236.4731597900390625 237.0459136962890625 237.62066650390625 237.6639251708984375 237.791290283203125 236.976776123046875 235.84515380859375 236.594268798828125 238.501861572265625 239.0608978271484375 237.39105224609375 236.4763031005859375 236.29217529296875 236.962005615234375 234.4022369384765625 231 231 231.139434814453125 234.292755126953125 241.473052978515625 252.864105224609375 272.00091552734375 321.60797119140625 386.810638427734375 424.965606689453125 437.930938720703125 401.022735595703125 348.48187255859375 311.7239990234375 283.425262451171875 271.52130126953125 274.506591796875 249.6603851318359375 232.068267822265625 236.6684417724609375 257.0714111328125 266.93743896484375
305.517730712890625 240.829681396484375 237.1649169921875 290.98651123046875 302.1593017578125 301.346893310546875 320.446868896484375 327.163360595703125 292.031524658203125 227.1498260498046875 173.656707763671875 140.756439208984375 117.8191680908203125 106.59649658203125 103.391845703125 99.61429595947265625 97.67050933837890625 96.72438812255859375 104.44196319580078125 117.822998046875 134.990264892578125 130.3468017578125 120.162353515625 107.04563140869140625 89.1198883056640625 91.62427520751953125 117.22345733642578125 146.22613525390625 170.29937744140625 178.540679931640625 179.945831298828125 170.963531494140625 170.889739990234375 175.9350128173828125 184.88714599609375 194.495330810546875 194.734130859375 192.878936767578125 185.807861328125 192.61053466796875 205.2037506103515625 212.5737152099609375 219.5845794677734375 221.1804962158203125 235.8155975341796875 251.5257415771484375 265.07220458984375 255.8502960205078125 256.380096435546875 277.150482177734375 283.5703125 275.95404052734375 301.1551513671875 308.42230224609375 308.723419189453125 318.48260498046875 334.702239990234375 355.995849609375 380.511077880859375 408.043121337890625 431.743377685546875 438.670623779296875 446.9705810546875 458.35748291015625 451.634063720703125 435.88153076171875 449.65863037109375 472.587554931640625 495.27252197265625 514.92254638671875 514.20526123046875 499.18115234375 478.8353271484375 477.202850341796875 486.4443359375 499.919189453125 519.26190185546875 540.28857421875 563.6553955078125 584.8724365234375 601.1854248046875 637.71002197265625 671.1444091796875 711.93450927734375 736.56396484375 757.12921142578125 755.2412109375 722.359619140625 672.33184814453125 628.126708984375 592.9888916015625 571.3375244140625 553.06597900390625 500.109161376953125 451.66558837890625 408.8782958984375 379.005706787109375 359.47210693359375 347.32208251953125 352.612396240234375 346.162445068359375 332.00274658203125 333.87921142578125 341.693511962890625 351.310089111328125 366.552032470703125 361.691497802734375 360.117095947265625 369.43304443359375 376.926422119140625 384.875640869140625 384.490753173828125 387.547637939453125 390.248443603515625 402.46649169921875 413.613616943359375 400.266998291015625 371.383575439453125 334.1375732421875 303.9088134765625 277.56781005859375 258.202392578125 243.923980712890625 239.5009002685546875 236.663787841796875 235.909637451171875 235.836944580078125 236.237213134765625 236.4141998291015625 236.4401702880859375 235.980865478515625 234.7831878662109375 234.6787872314453125 236.033538818359375 236.9630584716796875 236.817352294921875 236.189239501953125 235.80316162109375 236.5050201416015625 233.8022308349609375 231 231 231 232.39227294921875 235.8798828125 244.2391204833984375 269.033782958984375 313.787811279296875 368.856201171875 411.2757568359375 428.11065673828125 397.94366455078125 354.045257568359375 318.46429443359375 287.68902587890625 265.009857177734375 254.339385986328125 242.5594635009765625 231.70111083984375 236.847564697265625 253.2000579833984375 263.771209716796875
309.98797607421875 244.917694091796875 223.3253631591796875 274.222930908203125 293.4820556640625 291.138427734375 309.04180908203125 309.647369384765625 257.4915771484375 197.764373779296875 149.706207275390625 126.63506317138671875 114.601715087890625 112.23288726806640625 105.02228546142578125 95.0872802734375 97.22245025634765625 102.7148590087890625 108.2313079833984375 125.3342742919921875 137.955108642578125 124.7464141845703125 119.09058380126953125 107.24847412109375 88.3580474853515625 90.3891448974609375 109.44728851318359375 129.9657135009765625 161.650970458984375 183.799957275390625 187.78118896484375 182.0151214599609375 180.671905517578125 175.612640380859375 174.497161865234375 187.9322509765625 198.8563232421875 203.4754180908203125 193.8143310546875 193.7198486328125 209.5363006591796875 216.8966827392578125 225.402130126953125 225.1964111328125 232.0015869140625 252.169677734375 270.232696533203125 262.535247802734375 263.412261962890625 298.171966552734375 311.697113037109375 285.16632080078125 301.936614990234375 312.725128173828125 315.033203125 325.736175537109375 346.732147216796875 369.482879638671875 389.549224853515625 397.782318115234375 412.615814208984375 408.10760498046875 415.414398193359375 437.62646484375 437.0677490234375 422.44757080078125 440.150787353515625 458.011688232421875 488.880828857421875 526.25604248046875 536.281982421875 520.330078125 481.215667724609375 465.752227783203125 472.1676025390625 488.95953369140625 516.05572509765625 535.76239013671875 553.591552734375 562.59002685546875 577.21563720703125 610.56878662109375 637.7352294921875 670.60205078125 710.1148681640625 740.005859375 737.94598388671875 707.260498046875 670.99212646484375 625.0325927734375 581.8272705078125 546.66375732421875 528.67681884765625 488.571044921875 441.11297607421875 404.275299072265625 370.7239990234375 346.04486083984375 336.82861328125 338.311798095703125 333.7974853515625 326.825286865234375 326.884521484375 330.017578125 345.003753662109375 359.810028076171875 351.65960693359375 353.51470947265625 367.465240478515625 370.447845458984375 380.03143310546875 395.460113525390625 408.9754638671875 423.5498046875 442.929473876953125 457.80511474609375 438.10791015625 396.62109375 357.44622802734375 331.171417236328125 299.395111083984375 276.943206787109375 256.489044189453125 243.797882080078125 238.5365447998046875 236.30096435546875 234.77374267578125 234.9298248291015625 235.3289337158203125 234.882354736328125 234.27679443359375 233.6119232177734375 233.8424072265625 234.528961181640625 234.3467864990234375 235.35748291015625 236.000030517578125 235.69354248046875 236.2855987548828125 234.47015380859375 231 231 231 231.2000885009765625 239.1751708984375 261.779876708984375 293.766754150390625 332.1796875 362.8671875 388.215240478515625 395.967071533203125 371.861602783203125 339.6715087890625 303.97833251953125 275.7144775390625 262.73162841796875 242.7418975830078125 233.73974609375 231 234.9566497802734375 246.387359619140625 260.92523193359375
309.4324951171875 244.106048583984375 208.2599945068359375 244.4293670654296875 269.063934326171875 260.314544677734375 279.84930419921875 288.11175537109375 238.5219268798828125 178.495697021484375 139.6842803955078125 133.423736572265625 136.6212615966796875 132.712890625 116.6775970458984375 96.81096649169921875 97.530242919921875 106.8000946044921875 115.6616668701171875 134.32427978515625 129.5240936279296875 114.88320159912109375 121.56298065185546875 103.91436004638671875 87.1985931396484375 87.725799560546875 100.0489349365234375 114.46891021728515625 140.35430908203125 166.4516754150390625 185.7301483154296875 186.760894775390625 181.3147735595703125 167.8818511962890625 164.1659393310546875 176.360443115234375 191.4609527587890625 203.18890380859375 199.0111236572265625 199.682952880859375 218.140533447265625 227.3659515380859375 233.046966552734375 230.073944091796875 238.9707794189453125 261.66302490234375 278.752410888671875 268.141998291015625 268.744293212890625 303.28106689453125 327.575531005859375 296.41448974609375 307.257476806640625 319.6654052734375 322.211090087890625 337.9942626953125 356.474395751953125 380.656524658203125 393.379058837890625 382.08685302734375 386.06494140625 385.046722412109375 396.09161376953125 421.821136474609375 433.176971435546875 420.679046630859375 426.4854736328125 445.138275146484375 481.54705810546875 518.4166259765625 537.6434326171875 528.6495361328125 491.078338623046875 462.909454345703125 463.17919921875 478.7962646484375 504.6348876953125 520.04669189453125 530.4876708984375 541.72430419921875 563.85198974609375 590.0240478515625 610.040283203125 639.40435791015625 681.15020751953125 721.1600341796875 731.92181396484375 704.39208984375 657.4737548828125 610.18463134765625 569.24481201171875 541.30718994140625 517.6270751953125 485.004425048828125 432.808990478515625 389.9822998046875 358.066680908203125 336.15509033203125 329.48712158203125 329.226226806640625 327.39239501953125 324.12689208984375 323.35137939453125 324.594970703125 334.00689697265625 341.20556640625 338.10113525390625 340.90350341796875 358.360076904296875 368.84075927734375 389.362335205078125 413.04266357421875 437.90765380859375 453.877471923828125 471.34930419921875 492.960205078125 472.0001220703125 428.082733154296875 390.1673583984375 353.013916015625 312.344451904296875 287.8944091796875 264.46807861328125 247.0045166015625 239.888580322265625 237.6160430908203125 235.76690673828125 234.6997833251953125 234.6783905029296875 233.98858642578125 233.72393798828125 232.2308502197265625 232.480560302734375 232.6313018798828125 231.5993804931640625 232.0149078369140625 234.1985626220703125 235.190399169921875 235.7827606201171875 234.722564697265625 232.08984375 231 231 232.098419189453125 245.634735107421875 278.4599609375 309.364501953125 330.2572021484375 347.509796142578125 369.177825927734375 367.174041748046875 349.408905029296875 320.977020263671875 290.823028564453125 269.658935546875 265.697509765625 253.3065338134765625 234.79248046875 231.1174163818359375 236.4267730712890625 249.250823974609375 258.568359375
310.09075927734375 240.4822235107421875 194.9162750244140625 219.3153228759765625 246.1643218994140625 239.6514739990234375 261.41668701171875 272.59954833984375 235.2400970458984375 184.6792755126953125 143.1602783203125 142.801727294921875 159.3258819580078125 146.0993194580078125 113.78479766845703125 93.4720916748046875 91.9167022705078125 96.72077178955078125 112.2766876220703125 122.2648773193359375 109.40079498291015625 114.56607818603515625 114.8565521240234375 94.7403411865234375 85.82909393310546875 92.0547943115234375 114.87763214111328125 133.55352783203125 131.747283935546875 137.7686309814453125 159.0413818359375 175.346221923828125 172.3633575439453125 160.0259857177734375 168.5836181640625 171.4322662353515625 176.7408447265625 190.8532562255859375 199.79150390625 208.8216705322265625 228.724578857421875 238.9293212890625 236.6367950439453125 236.0623931884765625 244.4743804931640625 265.372711181640625 283.716949462890625 276.384765625 278.7568359375 301.952056884765625 335.2149658203125 313.145843505859375 315.521636962890625 325.108367919921875 326.22393798828125 338.30572509765625 353.263031005859375 376.22076416015625 386.528106689453125 372.266571044921875 362.202484130859375 363.460113525390625 377.137908935546875 402.438629150390625 419.819732666015625 415.83990478515625 405.839599609375 428.96807861328125 458.073883056640625 484.7620849609375 510.201080322265625 522.5682373046875 502.10137939453125 466.905914306640625 452.03057861328125 467.797943115234375 491.9610595703125 502.609527587890625 507.251129150390625 524.5386962890625 545.271728515625 563.61962890625 581.01544189453125 608.04840087890625 639.79412841796875 678.14801025390625 709.452880859375 694.7181396484375 646.19207763671875 591.361328125 548.65191650390625 539.7049560546875 521.73150634765625 482.140838623046875 425.595245361328125 377.158966064453125 342.08551025390625 328.4798583984375 323.716217041015625 323.00860595703125 322.517974853515625 320.096527099609375 319.037689208984375 319.49322509765625 324.576751708984375 329.90277099609375 330.714141845703125 334.57611083984375 354.21661376953125 380.386810302734375 402.05780029296875 424.134002685546875 449.742950439453125 455.56231689453125 464.95770263671875 492.4393310546875 492.91485595703125 466.053436279296875 424.174224853515625 372.3851318359375 328.440521240234375 301.076263427734375 273.230865478515625 248.4721832275390625 244.3121185302734375 243.107147216796875 243.1876983642578125 239.030181884765625 237.6335296630859375 236.6759185791015625 235.0226287841796875 232.865692138671875 232.1760101318359375 231.3174896240234375 229.8740234375 229.4043731689453125 231.0330963134765625 232.249359130859375 232.648590087890625 232.7166595458984375 232.1286773681640625 231 231 233.79144287109375 249.3391571044921875 281.332763671875 303.509979248046875 318.94708251953125 333.364959716796875 361.325927734375 366.586578369140625 345.177490234375 313.62060546875 284.2490234375 267.4000244140625 266.199249267578125 256.178375244140625 235.62457275390625 231.79443359375 240.22515869140625 244.7691497802734375 250.2358551025390625
311.97705078125 248.76068115234375 192.84222412109375 207.9449920654296875 213.9058380126953125 224.501007080078125 256.71832275390625 263.87152099609375 226.450103759765625 182.197967529296875 149.919219970703125 149.89434814453125 156.267181396484375 135.599273681640625 109.88991546630859375 94.3804473876953125 90.7918243408203125 90.5879669189453125 99.44040679931640625 104.1367340087890625 96.2348480224609375 101.3221588134765625 95.0380401611328125 84.77410125732421875 90.2694549560546875 113.370391845703125 142.9230499267578125 173.6675262451171875 172.8266754150390625 161.34332275390625 150.86614990234375 153.0835418701171875 153.79156494140625 162.4257659912109375 181.988555908203125 182.07080078125 176.0114898681640625 188.7227020263671875 204.7812042236328125 217.1420135498046875 232.523345947265625 243.6016998291015625 242.854034423828125 248.0834197998046875 257.2857666015625 269.9649658203125 284.273956298828125 280.569244384765625 285.01708984375 307.131103515625 343.733306884765625 323.431365966796875 315.66510009765625 323.487091064453125 326.509246826171875 330.542022705078125 340.7020263671875 362.59027099609375 375.746551513671875 364.33123779296875 345.76318359375 346.398681640625 363.505523681640625 384.955291748046875 402.535858154296875 402.9530029296875 394.542083740234375 408.599945068359375 431.30438232421875 454.962646484375 484.32708740234375 507.256622314453125 501.216064453125 471.526092529296875 439.042572021484375 448.185760498046875 475.797943115234375 480.85211181640625 489.87982177734375 509.611236572265625 527.00421142578125 544.822998046875 561.490234375 578.990966796875 602.421875 638.992919921875 668.9620361328125 669.722900390625 638.19927978515625 584.64642333984375 535.71368408203125 522.09869384765625 514.22601318359375 465.54229736328125 410.82110595703125 366.88641357421875 331.3455810546875 320.75946044921875 317.762725830078125 316.9698486328125 317.143707275390625 316.243896484375 315.393402099609375 317.693817138671875 330.439453125 340.7425537109375 335.73199462890625 334.757965087890625 356.44207763671875 381.488983154296875 405.019866943359375 420.038818359375 441.194122314453125 444.682952880859375 454.169586181640625 479.978759765625 497.013580322265625 489.6846923828125 458.37762451171875 400.41644287109375 350.0703125 313.396270751953125 282.957000732421875 255.2905120849609375 246.0140380859375 246.3329010009765625 248.847412109375 245.04803466796875 246.5806884765625 244.681427001953125 241.3068389892578125 241.7574920654296875 242.68426513671875 240.071441650390625 232.914520263671875 230.2947998046875 229.857666015625 230.5005645751953125 231.0631256103515625 231.6253204345703125 231.2267608642578125 231 231 232.97344970703125 261.582611083984375 296.16485595703125 315.5067138671875 326.592620849609375 326.867889404296875 352.497802734375 369.5457763671875 351.965576171875 316.360198974609375 281.955902099609375 263.53009033203125 262.417327880859375 251.569244384765625 234.15679931640625 231.326324462890625 233.33807373046875 232.3376617431640625 240.441009521484375
285.402099609375 236.5137786865234375 186.92889404296875 198.8496246337890625 197.6846160888671875 227.00311279296875 264.11029052734375 265.587158203125 225.168853759765625 179.2484130859375 154.4568939208984375 158.1670684814453125 151.8594818115234375 123.47641754150390625 109.7188568115234375 94.29436492919921875 87.05564117431640625 87.36740875244140625 95.75662994384765625 95.984100341796875 90.5523529052734375 87.99298095703125 83.43792724609375 83.765533447265625 98.9394683837890625 130.41253662109375 159.5929718017578125 196.0271759033203125 209.6165618896484375 193.838348388671875 175.9036102294921875 168.3060455322265625 157.1164093017578125 167.860870361328125 193.0353546142578125 190.611328125 183.3066558837890625 206.6664276123046875 225.792724609375 227.83514404296875 236.4135894775390625 250.18804931640625 253.3082122802734375 258.1512451171875 271.859405517578125 280.38446044921875 289.436676025390625 284.258514404296875 289.381744384765625 316.537017822265625 354.28680419921875 330.520050048828125 314.8804931640625 316.817352294921875 318.312225341796875 324.669525146484375 336.419342041015625 356.0665283203125 369.62921142578125 355.409912109375 336.458343505859375 335.003936767578125 352.2403564453125 375.59515380859375 390.98504638671875 389.06463623046875 383.902679443359375 396.9111328125 416.097381591796875 438.614593505859375 465.462066650390625 475.927978515625 479.3916015625 470.001129150390625 430.783782958984375 434.639617919921875 451.039642333984375 461.912750244140625 482.23455810546875 502.45111083984375 519.4447021484375 531.3662109375 545.25555419921875 554.62237548828125 569.3658447265625 602.42926025390625 639.72686767578125 660.76739501953125 646.87939453125 588.59735107421875 529.57177734375 489.315155029296875 475.14959716796875 441.51806640625 385.204986572265625 347.369140625 324.19390869140625 316.753143310546875 313.499359130859375 312.31097412109375 313.013336181640625 313.307861328125 313.408477783203125 321.6744384765625 347.780364990234375 364.1090087890625 353.44586181640625 343.78997802734375 351.23895263671875 373.030029296875 397.66107177734375 417.55206298828125 430.212615966796875 429.883056640625 438.62542724609375 460.167449951171875 486.42742919921875 501.222869873046875 482.62127685546875 417.2655029296875 368.329132080078125 335.94512939453125 298.36627197265625 261.29376220703125 244.989837646484375 244.0187835693359375 246.594024658203125 249.1986083984375 259.420074462890625 257.6688232421875 247.723419189453125 255.2344512939453125 265.39459228515625 261.82659912109375 242.08721923828125 232.702301025390625 230.825592041015625 230.5775909423828125 230.9740142822265625 231.424285888671875 231.007598876953125 231 231 231 261.742889404296875 310.8818359375 339.662353515625 353.68170166015625 348.61712646484375 360.41656494140625 380.74822998046875 366.607757568359375 319.86962890625 279.377044677734375 258.685699462890625 258.70904541015625 246.099365234375 232.65362548828125 231 231.2301788330078125 230.4161834716796875 241.93145751953125
267.486724853515625 222.9106903076171875 183.4843292236328125 187.4916534423828125 192.44073486328125 231.5926666259765625 263.46624755859375 266.746185302734375 232.550811767578125 182.443603515625 158.36651611328125 161.7149810791015625 151.358245849609375 121.07176971435546875 104.3209228515625 92.61183929443359375 84.91497039794921875 85.5852203369140625 94.90419769287109375 95.0565338134765625 88.10457611083984375 84.176788330078125 83.78760528564453125 89.55152130126953125 101.2818756103515625 130.8447418212890625 160.1182403564453125 195.5040130615234375 211.5194854736328125 208.4514923095703125 204.3031158447265625 196.359619140625 180.58880615234375 178.300506591796875 192.328643798828125 191.8783111572265625 189.379791259765625 212.34765625 236.97357177734375 242.23876953125 242.860015869140625 259.863128662109375 265.27008056640625 269.855712890625 286.9091796875 298.085784912109375 299.728973388671875 294.886199951171875 307.1090087890625 337.533660888671875 372.702301025390625 342.77490234375 317.881317138671875 312.0382080078125 311.20355224609375 321.214019775390625 331.834259033203125 346.989593505859375 358.559783935546875 343.19720458984375 327.000762939453125 325.715911865234375 342.028900146484375 362.837005615234375 381.162506103515625 385.070556640625 378.174163818359375 388.690277099609375 405.541656494140625 419.629241943359375 437.3524169921875 443.5528564453125 461.21337890625 469.037811279296875 427.464691162109375 418.78424072265625 433.618133544921875 455.78387451171875 478.25103759765625 490.5125732421875 505.328216552734375 516.38214111328125 529.77960205078125 536.14239501953125 544.70672607421875 586.63177490234375 641.36053466796875 666.69207763671875 648.18475341796875 594.59515380859375 532.09912109375 464.538665771484375 438.249847412109375 416.645538330078125 369.83673095703125 332.526611328125 316.767852783203125 312.268524169921875 309.408905029296875 308.725982666015625 310.341705322265625 311.151092529296875 313.78057861328125 335.3641357421875 367.726470947265625 370.73858642578125 367.309417724609375 364.112701416015625 352.891265869140625 367.49285888671875 390.354827880859375 414.80450439453125 425.36798095703125 424.96002197265625 432.2877197265625 454.427337646484375 489.017578125 514.184814453125 494.473785400390625 438.615875244140625 395.811859130859375 358.89825439453125 306.940185546875 260.711395263671875 244.502685546875 242.8635711669921875 244.8763580322265625 252.463470458984375 267.46136474609375 267.879608154296875 252.5908966064453125 252.30938720703125 263.937164306640625 268.854644775390625 251.12774658203125 238.1175994873046875 233.1480255126953125 231.024383544921875 230.994720458984375 231 231 231 231 231 256.28302001953125 309.921844482421875 349.575286865234375 368.07757568359375 364.585601806640625 371.536224365234375 383.5067138671875 362.83050537109375 316.78704833984375 270.864990234375 254.2634429931640625 254.609466552734375 240.6605682373046875 231.9669036865234375 231 231.4602508544921875 234.751312255859375 255.76483154296875
